# .PCD v0.7 - Point Cloud Data file format
VERSION 0.7
FIELDS x y z rgb
SIZE 4 4 4 4
TYPE F F F U
COUNT 1 1 1 1
WIDTH 1151
HEIGHT 1
VIEWPOINT 0 0 0 1 0 0 0
POINTS 1151
DATA ascii
13.68206 9.0828705 2.2535658 4294967040
13.928413 9.0645351 2.2426925 4294967040
14.101982 9.0687695 2.2953362 4294967040
14.288259 9.0659781 2.2755694 4294967040
14.507936 9.0845051 2.3106248 4294967040
14.724496 9.0653572 2.3260262 4294967040
14.89585 9.0292416 2.3388808 4294967040
15.068857 9.068656 2.3674839 4294967040
15.269752 9.0516367 2.3800914 4294967040
15.478951 9.0842075 2.3876615 4294967040
15.669373 9.0835686 2.3933377 4294967040
15.914244 9.0699301 2.3839254 4294967040
16.05057 9.0699396 2.3883996 4294967040
16.225065 9.0581141 2.3952813 4294967040
16.513838 9.0103912 2.2091477 4294967040
16.710262 9.0022564 2.2295418 4294967040
16.85763 9.0017595 2.2431045 4294967040
17.113289 9.1168776 2.2146974 4294967040
23.124804 9.1866856 2.2220888 4294967040
23.331663 9.1885033 2.2404926 4294967040
23.512079 9.181673 2.2562866 4294967040
25.092463 9.1923275 2.3906457 4294967040
33.241776 9.059042 2.3677189 4294967040
33.606754 9.0418806 2.3929086 4294967040
-20.694653 9.2438154 2.3917491 4294967040
-20.504086 9.2226238 2.376291 4294967040
-20.256882 9.3147478 2.3695726 4294967040
-20.037777 9.3050385 2.3608186 4294967040
-19.897007 9.2217865 2.3701921 4294967040
-19.723963 9.2713737 2.3530464 4294967040
-19.498186 9.2989798 2.3281476 4294967040
-19.305782 9.2261438 2.3217425 4294967040
-19.139336 9.2776337 2.3026071 4294967040
-18.947945 9.2319756 2.2916636 4294967040
-18.702572 9.2772903 2.2678132 4294967040
-18.527296 9.2389069 2.2569175 4294967040
-18.35791 9.294693 2.2464242 4294967040
-14.517375 9.3399725 2.3946311 4294967040
-14.253865 9.3709326 2.3704636 4294967040
-14.055944 9.3411369 2.3720951 4294967040
-13.894269 9.3443489 2.3946068 4294967040
-13.711949 9.3142281 2.381613 4294967040
-13.523346 9.3103542 2.3604934 4294967040
-0.80565739 9.2335806 2.2129757 4294967040
-0.76710206 9.2505512 2.2176154 4294967040
3.8423615 9.3974485 2.3939512 4294967040
4.0757923 9.3955402 2.3187845 4294967040
4.3247256 9.3882217 2.3364 4294967040
4.5700707 9.3772926 2.2392163 4294967040
4.7485719 9.3874245 2.2102311 4294967040
4.9193935 9.381362 2.2099075 4294967040
5.1278734 9.3787088 2.2266312 4294967040
5.2853632 9.3599854 2.2270222 4294967040
5.5205975 9.3171482 2.2210629 4294967040
5.724689 9.3184481 2.2470169 4294967040
5.9438601 9.2708645 2.2401175 4294967040
6.1052976 9.2577 2.2527936 4294967040
6.3013225 9.252943 2.2749705 4294967040
6.532321 9.3171711 2.2638807 4294967040
6.6971669 9.3080206 2.2797337 4294967040
6.8787403 9.2979851 2.2953935 4294967040
7.0974236 9.2943945 2.2963798 4294967040
7.3240795 9.293148 2.2976329 4294967040
7.5160875 9.2451706 2.2164359 4294967040
7.7547369 9.2260427 2.2197561 4294967040
7.8571429 9.2301903 2.2879553 4294967040
9.2944336 9.2118034 2.3594062 4294967040
9.5607758 9.2380352 2.2775168 4294967040
9.6900635 9.3324804 2.3021505 4294967040
9.8748617 9.2731028 2.3011427 4294967040
10.115196 9.2568836 2.2712178 4294967040
10.307993 9.2598143 2.2973423 4294967040
10.496003 9.235446 2.2916977 4294967040
10.671421 9.2297001 2.3308239 4294967040
10.922931 9.2224379 2.338166 4294967040
11.115757 9.2300711 2.3421986 4294967040
11.316093 9.218462 2.3171997 4294967040
11.527929 9.2089443 2.2287493 4294967040
11.697512 9.2036362 2.2271786 4294967040
11.837298 9.2033501 2.2630696 4294967040
12.789444 9.3440819 2.2048516 4294967040
12.898785 9.3258591 2.2073603 4294967040
13.071394 9.2976561 2.2166674 4294967040
13.292318 9.2955027 2.2435408 4294967040
13.507891 9.2967567 2.2712893 4294967040
13.756979 9.3154449 2.2246199 4294967040
13.885881 9.2975769 2.2385035 4294967040
14.053153 9.3014641 2.2415872 4294967040
14.2528 9.3024521 2.2654209 4294967040
14.499607 9.2965755 2.2956283 4294967040
14.693721 9.3010168 2.3122468 4294967040
14.910805 9.2927046 2.338697 4294967040
15.156277 9.2959461 2.3703156 4294967040
15.324207 9.2951927 2.3914223 4294967040
16.945766 9.3016405 2.202904 4294967040
17.015717 9.3089333 2.2133596 4294967040
22.728868 9.3128719 2.2065239 4294967040
22.919207 9.2591724 2.2098637 4294967040
23.103785 9.2352333 2.212033 4294967040
23.284237 9.2761021 2.2359021 4294967040
23.48975 9.2921124 2.2736659 4294967040
23.800581 9.3302927 2.2650077 4294967040
24.726669 9.2974091 2.3817132 4294967040
24.929937 9.2582512 2.3844664 4294967040
25.033718 9.2850237 2.3885479 4294967040
25.205894 9.2116051 2.3966858 4294967040
32.929123 9.2448864 2.3462114 4294967040
33.100456 9.2405624 2.3585906 4294967040
33.310402 9.2384243 2.3723941 4294967040
33.498112 9.2421503 2.3860233 4294967040
33.671425 9.2446947 2.3959303 4294967040
-20.24691 9.54039 2.3946495 4294967040
-20.072639 9.5297718 2.3776574 4294967040
-19.921879 9.5457649 2.36748 4294967040
-19.690573 9.5405865 2.3469779 4294967040
-19.526346 9.5483046 2.3341694 4294967040
-19.317486 9.5465736 2.3163686 4294967040
-19.092953 9.5458069 2.2974672 4294967040
-18.915039 9.5304966 2.2799911 4294967040
-18.720291 9.5495024 2.2669919 4294967040
-18.490566 9.5419035 2.2470486 4294967040
-18.274513 9.5223618 2.2497854 4294967040
-18.174538 9.5700588 2.2212241 4294967040
-14.368048 9.4431591 2.3880713 4294967040
-14.107725 9.4347 2.3709288 4294967040
-13.906114 9.5673294 2.3620319 4294967040
-13.751528 9.5280876 2.3860521 4294967040
-13.554018 9.4817314 2.3794479 4294967040
-4.0880356 9.5360374 2.3173804 4294967040
-3.8596516 9.5914383 2.3194277 4294967040
-0.75357676 9.4803181 2.3864095 4294967040
2.0512259 9.5698452 2.2017934 4294967040
2.2902806 9.5292435 2.2310977 4294967040
2.4822221 9.5344324 2.2240827 4294967040
2.6851602 9.5200281 2.2464895 4294967040
2.8875227 9.5523491 2.2316031 4294967040
3.09811 9.5648079 2.2263527 4294967040
3.3269863 9.5772076 2.2250302 4294967040
3.5130465 9.5795107 2.2171099 4294967040
3.7163725 9.5887604 2.2223849 4294967040
3.8856606 9.5469179 2.2312937 4294967040
4.1177382 9.5862169 2.219877 4294967040
4.3007174 9.5543804 2.2285676 4294967040
4.4552836 9.5648136 2.2150865 4294967040
4.7296205 9.5048542 2.2614925 4294967040
4.9245696 9.4056683 2.3302672 4294967040
5.0924187 9.4536381 2.2898533 4294967040
5.2519779 9.4524479 2.2919748 4294967040
5.5054259 9.5047274 2.2429461 4294967040
5.6889839 9.5021925 2.2594748 4294967040
5.8774509 9.5054846 2.2781093 4294967040
6.088985 9.5037651 2.2986348 4294967040
6.3438635 9.5476017 2.265908 4294967040
6.5110941 9.5620956 2.2307067 4294967040
6.6751633 9.5645885 2.2580919 4294967040
6.8487616 9.5318928 2.2818604 4294967040
9.2937183 9.5216465 2.2206392 4294967040
9.5435858 9.520463 2.2500916 4294967040
9.7545567 9.5316486 2.2369771 4294967040
9.9330254 9.5291929 2.2586675 4294967040
10.108141 9.5302525 2.2806213 4294967040
10.275185 9.5336914 2.3021195 4294967040
10.502346 9.5346317 2.331284 4294967040
10.757542 9.5376482 2.3646712 4294967040
10.919717 9.5509405 2.349757 4294967040
11.078563 9.5523911 2.3711464 4294967040
13.384089 9.5500278 2.2235277 4294967040
13.589755 9.5521393 2.2477198 4294967040
13.758173 9.5489016 2.2672067 4294967040
13.975217 9.5540018 2.2932696 4294967040
14.195621 9.5553274 2.3195417 4294967040
14.378473 9.5575199 2.3415484 4294967040
14.557343 9.5594273 2.3631511 4294967040
14.786325 9.5554314 2.3904076 4294967040
-21.220654 9.6932821 2.3938527 4294967040
-21.061581 9.6880989 2.3945837 4294967040
-20.837368 9.6881151 2.3751554 4294967040
-20.656019 9.6876144 2.3599384 4294967040
-20.542297 9.6879692 2.3522902 4294967040
-20.373781 9.6857224 2.3351593 4294967040
-20.131105 9.7030401 2.3550258 4294967040
-19.881096 9.6977987 2.3331161 4294967040
-19.717896 9.6852188 2.2799656 4294967040
-19.534081 9.6949577 2.3028054 4294967040
-19.34668 9.7131338 2.3034112 4294967040
-19.157164 9.6954327 2.2694945 4294967040
-18.946102 9.6911135 2.2467451 4294967040
-18.699879 9.7405376 2.2663441 4294967040
-18.451483 9.6784554 2.2568612 4294967040
-18.234322 9.7202425 2.2521842 4294967040
-18.123684 9.7487535 2.2284369 4294967040
-17.954933 9.7846241 2.2497971 4294967040
-14.23779 9.6501436 2.3913012 4294967040
-14.079489 9.7040071 2.3799081 4294967040
-13.86212 9.7112427 2.361433 4294967040
-13.685352 9.7420969 2.3603377 4294967040
-4.2440519 9.6139927 2.31075 4294967040
-4.1106753 9.6475706 2.3120861 4294967040
-3.8848147 9.7072754 2.3151863 4294967040
-3.6788106 9.6930771 2.3192081 4294967040
-3.5484059 9.7816887 2.3186629 4294967040
-3.2983513 9.7332058 2.327883 4294967040
-3.1197941 9.7768679 2.3310347 4294967040
3.7642567 9.603981 2.2473385 4294967040
3.8939991 9.6025906 2.2539361 4294967040
4.1228714 9.6053696 2.2532573 4294967040
4.3527756 9.6054974 2.2399361 4294967040
4.5345917 9.6048431 2.2284493 4294967040
4.6552515 9.6037483 2.2207286 4294967040
4.9150648 9.6060028 2.2329466 4294967040
5.1116605 9.6137238 2.2511353 4294967040
5.300036 9.6140242 2.2644367 4294967040
5.5189047 9.6260633 2.2906394 4294967040
5.7286925 9.6312103 2.3121381 4294967040
5.9420857 9.6371899 2.3317113 4294967040
6.1219783 9.6435137 2.3524704 4294967040
6.2951984 9.6467609 2.3697033 4294967040
6.4920826 9.6474094 2.3853612 4294967040
6.7599592 9.6002598 2.2539375 4294967040
9.0815372 9.734129 2.2518969 4294967040
9.2634296 9.7410851 2.2765422 4294967040
9.4905128 9.7489166 2.3062787 4294967040
9.7418308 9.7267542 2.2710261 4294967040
9.9135895 9.6970854 2.2484183 4294967040
10.102852 9.7084503 2.2820942 4294967040
10.270955 9.7091303 2.2862015 4294967040
10.46313 9.7031527 2.298449 4294967040
10.692249 9.7034349 2.3288708 4294967040
10.93121 9.7104855 2.3611283 4294967040
11.116618 9.7230511 2.3866632 4294967040
22.912329 9.637619 2.2022686 4294967040
23.098022 9.6323328 2.2183251 4294967040
23.282545 9.6344299 2.2345779 4294967040
23.466898 9.6305408 2.2506106 4294967040
25.149521 9.6470385 2.399672 4293066496
-20.110956 9.923748 2.3948472 4294967040
-19.905769 9.9211769 2.3775039 4294967040
-19.707533 9.8954611 2.354028 4294967040
-19.542572 9.9197464 2.3466954 4294967040
-19.28973 9.9051628 2.320087 4294967040
-19.094067 9.9065256 2.3090577 4294967040
-18.889593 9.9196968 2.2928958 4294967040
-18.659487 9.9067307 2.2732124 4294967040
-18.506371 9.9138727 2.2609529 4294967040
-18.288475 9.8969097 2.2447612 4294967040
-18.067673 9.8634815 2.2468195 4294967040
-17.922588 9.9038248 2.235033 4294967040
-13.856868 9.8367386 2.3697343 4294967040
-13.703276 9.9107313 2.361469 4294967040
-12.299536 9.9623775 2.3821139 4294967040
-4.4305692 9.8796272 2.3658521 4294967040
-4.2534547 9.9338236 2.3503549 4294967040
-4.080997 9.973608 2.3563504 4294967040
-3.447448 9.8141193 2.321471 4294967040
-3.0604322 9.9084892 2.3287618 4294967040
-2.921411 9.868763 2.331111 4294967040
-2.7347834 9.9294271 2.334193 4294967040
-2.5402603 9.8863487 2.3388958 4294967040
9.4352846 9.8044052 2.3823934 4294967040
12.175272 9.9304266 2.2118332 4294967040
12.340405 9.9364719 2.2241759 4294967040
12.464609 9.9388142 2.231276 4294967040
12.665123 9.9178944 2.2230806 4294967040
12.900912 9.8787041 2.2264681 4294967040
13.104351 9.8986588 2.2566788 4294967040
13.30473 9.9062309 2.2800715 4294967040
13.502071 9.9143257 2.3030777 4294967040
13.716374 9.9230156 2.330024 4294967040
13.928418 9.9142342 2.3460743 4294967040
14.105536 9.9371872 2.3740377 4294962688
14.312374 9.9014759 2.3828478 4294957568
-20.147823 10.180553 2.3964126 4294967040
-19.612476 10.00676 2.3448765 4294967040
-19.499466 10.075603 2.338125 4294967040
-19.145802 10.093535 2.3120592 4294967040
-18.923191 10.069126 2.2918701 4294967040
-18.708359 10.076518 2.2811646 4294967040
-18.31909 10.185359 2.3170896 4294967040
-18.070654 10.054516 2.2429142 4294967040
-17.914839 10.069881 2.2451758 4294967040
-17.785213 10.169222 2.2268958 4294967040
-14.008235 10.167208 2.2106199 4294967040
-13.892382 10.115795 2.2965903 4294967040
-12.198664 10.086945 2.3870492 4294967040
-10.131342 10.068182 2.2087626 4294967040
-9.8127499 10.167846 2.2559948 4294967040
-9.7259178 10.198416 2.2536304 4294967040
-4.4533253 10.098535 2.3713946 4294967040
-4.2910938 10.043734 2.3662992 4294967040
-4.090364 10.084357 2.3672414 4294967040
-3.8834791 10.055929 2.3569703 4294967040
-3.707397 10.096755 2.3587213 4294967040
-3.5326958 10.091739 2.3574648 4294967040
-3.3019557 10.15405 2.3791513 4294967040
-3.0875452 10.181689 2.3795161 4294967040
-2.8703873 10.197376 2.378499 4294967040
-2.7972996 10.198633 2.3545513 4294967040
2.1298213 10.154289 2.3830714 4294967040
13.963364 10.002698 2.397192 4294963200
16.335869 10.091459 2.2095685 4294967040
16.485701 10.096378 2.2253275 4294967040
22.444256 10.192511 2.2016504 4294961408
-20.011322 10.391953 2.3574731 4294967040
-19.701191 10.370364 2.3548288 4294967040
-19.518057 10.30864 2.33301 4294967040
-19.290344 10.308835 2.3134136 4294967040
-19.154285 10.351493 2.3080773 4294967040
-18.910324 10.361473 2.2817094 4294967040
-18.693571 10.352261 2.2695627 4294967040
-18.451717 10.337584 2.2765365 4294967040
-18.283199 10.29377 2.2403622 4294967040
-18.040865 10.393934 2.2394474 4294967040
-17.903652 10.334581 2.2389638 4294967040
-17.721415 10.326481 2.2288489 4294967040
-17.588579 10.354429 2.2082915 4294967040
-13.880882 10.345948 2.2115567 4294967040
-9.7003927 10.300031 2.26877 4294967040
-4.4621568 10.325649 2.3968186 4294967040
-4.2698574 10.28223 2.3867693 4294967040
-4.0534134 10.227449 2.3636134 4294967040
-3.8972628 10.332825 2.3469067 4294967040
-3.6672125 10.266342 2.3531549 4294967040
-3.5093126 10.292529 2.3606639 4294967040
-3.3288872 10.32073 2.3741944 4294967040
-3.1099832 10.274779 2.3752222 4294967040
-2.8405046 10.311563 2.355617 4294967040
-2.6587512 10.312634 2.353853 4294967040
-2.5228021 10.348038 2.3471315 4294967040
-0.48510081 10.265814 2.3855741 4294967040
-0.29532963 10.298947 2.389935 4294967040
-0.09134943 10.30244 2.3960426 4294967040
0.035259254 10.361659 2.398524 4294967040
1.1231977 10.347399 2.329169 4294967040
2.0895388 10.225518 2.3848326 4294967040
22.18115 10.301886 2.2005162 4290436096
22.333067 10.344175 2.2212985 4293054464
22.572819 10.353004 2.2425282 4294962176
22.699028 10.264776 2.2354121 4294963200
22.884495 10.269779 2.2517748 4294966272
23.014204 10.214005 2.252064 4294964224
-20.50457 10.407524 2.3987966 4294967040
-20.317509 10.405864 2.3833473 4294967040
-20.039249 10.449791 2.3841197 4294967040
-19.872036 10.455458 2.3811469 4294967040
-19.665848 10.47439 2.3617377 4294967040
-19.515608 10.476651 2.3493958 4294967040
-19.291435 10.438105 2.3334143 4294967040
-19.100231 10.486256 2.3158615 4294967040
-18.928802 10.488997 2.3037646 4294967040
-18.755522 10.5131 2.2996941 4294967040
-18.423424 10.476049 2.3321142 4294967040
-18.312801 10.584715 2.2691989 4294967040
-18.118668 10.557362 2.2515383 4294967040
-17.898178 10.488697 2.2325068 4294967040
-17.731874 10.540968 2.2127206 4294967040
-17.548552 10.506478 2.221391 4294967040
-13.872339 10.450845 2.2167664 4294967040
-11.259563 10.514029 2.2273498 4294967040
-9.7098255 10.426317 2.2712622 4294967040
-4.0453548 10.412349 2.3973448 4294967040
-3.8286679 10.431801 2.372683 4294967040
-3.7014058 10.400881 2.3441136 4294967040
-3.5139248 10.431566 2.3461163 4294967040
-2.631973 10.446095 2.3841231 4294967040
-2.5761685 10.560581 2.3660727 4294967040
22.782047 10.406953 2.2687941 4294958848
22.966738 10.407983 2.2849584 4294967040
-21.766588 10.792803 2.3847282 4294967040
-20.053665 10.709189 2.3801074 4294967040
-19.919807 10.694902 2.375566 4294967040
-19.725077 10.685636 2.3595221 4294967040
-19.511326 10.676975 2.3417814 4294967040
-19.303638 10.668418 2.3247197 4294967040
-19.131577 10.642791 2.3236947 4294967040
-18.928715 10.664988 2.2923684 4294967040
-18.711197 10.654984 2.2682629 4294967040
-18.542316 10.623089 2.2632165 4294967040
-18.222351 10.702275 2.2930415 4294967040
-18.16721 10.689003 2.2928083 4294967040
-17.904915 10.610416 2.2312059 4294967040
-17.649561 10.633026 2.2251229 4294967040
-17.539227 10.682482 2.2177062 4294967040
-11.616007 10.749846 2.2816024 4294967040
-11.476411 10.779669 2.2394757 4294967040
-11.302065 10.652961 2.24576 4294967040
-11.086071 10.677835 2.2241769 4294967040
-8.4908409 10.748866 2.3362465 4294967040
-8.2569504 10.768517 2.3033288 4294967040
-6.1190462 10.720875 2.3793669 4294967040
-5.9343748 10.667295 2.3505263 4294967040
-4.072906 10.793793 2.3999753 4294967040
-3.8877273 10.730677 2.3774095 4294967040
-3.7492914 10.77669 2.3811841 4294967040
-2.7092509 10.621045 2.3676186 4294967040
-2.5397186 10.618165 2.3652079 4294967040
-21.746231 10.848763 2.3954434 4294967040
-21.050003 10.997955 2.3994567 4294967040
-20.899023 10.985244 2.3856483 4294967040
-20.69379 10.977593 2.3706126 4294967040
-20.507256 10.902165 2.3790894 4294967040
-20.312271 10.890274 2.3650451 4294967040
-20.095871 10.989828 2.3341146 4294967040
-19.924992 10.987574 2.3195062 4294967040
-19.71751 10.97686 2.3012414 4294967040
-19.460743 10.954969 2.2815022 4294967040
-19.25811 10.9786 2.3052697 4294967040
-19.066416 10.97649 2.2971473 4294967040
-18.868977 10.965782 2.284687 4294967040
-18.679626 10.954979 2.2612321 4294967040
-18.505978 10.946492 2.2550292 4294967040
-18.24177 10.894493 2.2735367 4294967040
-18.155571 10.909557 2.2752175 4294967040
-17.899918 10.944873 2.2438498 4294967040
-17.683224 10.94363 2.2128062 4294967040
-17.570379 10.897081 2.2121038 4294967040
-17.375633 10.97683 2.2059855 4294967040
-11.658949 10.844259 2.2970719 4294967040
-11.443329 10.898435 2.2412384 4294967040
-11.336205 10.959389 2.2817397 4294967040
-8.3087378 10.997271 2.3333101 4294967040
1.5038885 10.982716 2.3333373 4294967040
-21.646584 11.128811 2.3968344 4294967040
-21.47909 11.134825 2.3860009 4294967040
-21.255102 11.111973 2.3663869 4294967040
-21.034107 11.059979 2.3864594 4294967040
-20.841877 11.058313 2.3791907 4294967040
-20.746429 11.06513 2.3790002 4294967040
-20.474171 11.028828 2.3608117 4294967040
-20.331087 11.024481 2.3525772 4294967040
-20.068111 11.042484 2.3764219 4294967040
-19.850895 11.070397 2.3828652 4294967040
-19.733696 11.044489 2.3534398 4294967040
-19.522682 11.051912 2.3572106 4294967040
-19.321125 11.048469 2.3355932 4294967040
-19.154793 11.065802 2.3311343 4294967040
-18.87587 11.045357 2.3111653 4294967040
-18.656082 11.08341 2.299161 4294967040
-18.46678 11.069448 2.2831316 4294967040
-18.318415 11.114693 2.274096 4294967040
-18.072819 11.010256 2.2434022 4294967040
-17.966322 11.064601 2.2717631 4294967040
-17.662903 11.019622 2.2307317 4294967040
-17.491669 11.054569 2.2128761 4294967040
-17.267693 11.097292 2.2134242 4294967040
-17.17025 11.157433 2.2039089 4294967040
-13.44372 11.083878 2.2713563 4294965760
-13.360752 11.138539 2.2534339 4294964224
-11.496994 11.020096 2.2917509 4294967040
-11.347532 11.079487 2.2935793 4294967040
-10.547487 11.199595 2.39501 4294967040
-8.8485956 11.021873 2.2018726 4294967040
-1.4353824 11.146465 2.2126551 4294967040
-1.3231519 11.176251 2.2143579 4294967040
1.1384804 11.19359 2.3719745 4294967040
2.3251433 11.093521 2.2900343 4294967040
3.0514445 11.099495 2.2036874 4294967040
-21.647583 11.326431 2.3449421 4294967040
-21.528835 11.317869 2.3308911 4294967040
-21.334457 11.328026 2.3183181 4294967040
-21.165665 11.275702 2.3218303 4294967040
-20.910114 11.27273 2.2985778 4294967040
-20.701958 11.237513 2.2948084 4294967040
-20.496662 11.223219 2.2759395 4294967040
-20.330349 11.228036 2.2605047 4294967040
-20.159092 11.217671 2.2422142 4294967040
-19.965654 11.206364 2.2207856 4294967040
-19.734716 11.248343 2.3959298 4294967040
-19.527657 11.260317 2.3805561 4294967040
-19.309408 11.274395 2.3663886 4294967040
-19.110077 11.258964 2.3497319 4294967040
-18.918228 11.244644 2.3334484 4294967040
-18.70857 11.263263 2.3198895 4294967040
-18.476501 11.254154 2.2992978 4294967040
-18.33453 11.264072 2.2944548 4294967040
-17.643314 11.390407 2.2346442 4294967040
-17.407124 11.270854 2.2292824 4294967040
-17.331202 11.272868 2.2076056 4294967040
-17.140354 11.266212 2.212239 4294967040
-15.503494 11.367925 2.3560607 4294967040
-15.384152 11.388887 2.3416891 4294967040
-15.145065 11.212637 2.2930706 4294967040
-13.286746 11.308392 2.2518547 4294964992
-12.391392 11.3339 2.3985767 4294967040
-11.57734 11.202014 2.3210812 4294967040
-8.6844912 11.250092 2.2676678 4294967040
-8.5235252 11.328812 2.2684476 4294967040
-1.2237691 11.289104 2.2010038 4294967040
-1.1896799 11.31934 2.2043898 4294967040
1.0438821 11.321517 2.2523179 4294967040
2.2761972 11.29664 2.3319662 4294967040
2.534039 11.359675 2.226613 4294967040
-17.653065 11.534524 2.2453997 4294967040
-17.426779 11.493447 2.2278242 4294967040
-17.263775 11.443795 2.2132554 4294967040
-17.142996 11.521425 2.2113781 4294967040
-16.987926 11.515079 2.2051094 4294967040
-15.43157 11.410115 2.3518353 4294967040
-15.34127 11.471102 2.3515551 4294967040
-13.278778 11.42852 2.2507086 4294961920
2.5401239 11.451823 2.2529895 4294967040
-17.656071 11.721396 2.2799921 4294967040
-17.480488 11.734119 2.2385712 4294967040
-17.149954 11.664855 2.2296844 4294967040
-16.893913 11.73642 2.2050033 4294967040
-15.334126 11.625154 2.3615797 4294967040
-12.013906 11.75176 2.3914807 4294964480
-11.913359 11.772587 2.3743386 4294965760
-11.781552 11.766034 2.3882365 4294959104
22.438044 11.739016 2.2301862 4294967040
-17.646338 11.893139 2.289001 4294967040
-17.474648 11.84934 2.2452526 4294967040
-17.255585 11.995111 2.2326291 4294967040
-16.840473 11.813619 2.2109838 4294967040
-12.08082 11.956718 2.3916569 4294967040
-11.944016 11.953114 2.3817525 4294967040
-11.748936 11.926857 2.3647649 4294967040
-11.527002 11.953905 2.3646886 4294967040
2.6420956 11.862487 2.2715578 4294967040
20.968369 11.839691 2.2069809 4294963456
21.179319 11.821796 2.223798 4294966272
21.476923 11.903146 2.2360766 4294967040
21.641787 11.856926 2.2478836 4294959872
22.494919 11.904358 2.2336307 4294962944
22.815853 11.974073 2.2716193 4294967040
-17.289667 12.09996 2.2569532 4294967040
-17.192051 12.149693 2.260946 4294967040
-12.016254 12.005856 2.3907604 4294967040
-11.916808 12.114891 2.3920391 4294967040
-11.706697 12.084618 2.3744903 4294967040
-11.50158 12.148901 2.3650379 4294967040
21.167713 12.040625 2.2245805 4294965760
21.26598 12.015696 2.2231636 4294954496
21.493704 12.146153 2.259099 4294967040
22.059486 12.184987 2.2068779 4291675904
22.336979 12.107149 2.236253 4294967040
22.556864 12.088309 2.2457538 4293515776
22.797043 12.103744 2.270972 4289569792
22.873737 12.163011 2.2836542 4294967040
23.058569 12.038258 2.2931695 4294967040
-17.21862 12.260149 2.2649188 4294967040
-17.192862 12.299706 2.2681651 4294967040
-11.831711 12.255192 2.3982069 4294967040
-11.674747 12.322046 2.3926306 4294967040
-11.480875 12.306753 2.3798494 4294967040
-11.314333 12.335197 2.3725126 4294967040
2.7073042 12.383108 2.3785114 4294967040
21.511087 12.262898 2.2657313 4294966528
21.723949 12.22072 2.2112863 4294965760
22.514822 12.277405 2.2541876 4294967040
22.778069 12.325014 2.2794886 4289569280
23.987757 12.36237 2.3903871 4294956544
24.059263 12.298749 2.3942275 4294956800
-18.154608 12.529303 2.2523568 4294967040
-17.963984 12.531174 2.2274518 4294967040
-11.600523 12.463237 2.3999181 4294967040
-11.451815 12.521458 2.3949771 4294967040
-11.317989 12.570848 2.3892174 4294967040
-11.150169 12.427502 2.3651781 4294967040
-1.6474314 12.565397 2.3116827 4294967040
-1.5257664 12.538784 2.2130942 4294967040
-1.3264308 12.535357 2.2186298 4294967040
-1.1277626 12.541614 2.2381883 4294967040
-0.91936827 12.555939 2.2275255 4294967040
-0.72363621 12.557472 2.2313025 4294967040
-0.54291141 12.566243 2.217855 4294967040
-0.34581012 12.570205 2.2234392 4294967040
-0.10633745 12.581666 2.2213533 4294967040
0.052648269 12.582369 2.2222812 4294967040
0.26624957 12.58694 2.2217438 4294967040
0.51956725 12.586425 2.2252374 4294967040
0.74061453 12.589452 2.2301054 4294967040
0.87894028 12.567434 2.3061495 4294967040
1.0792305 12.565296 2.3394134 4294967040
1.2334412 12.563442 2.3333874 4294967040
1.4764482 12.57088 2.3467052 4294967040
1.6721705 12.566837 2.3430476 4294967040
1.8617821 12.556324 2.338223 4294967040
2.0628791 12.538658 2.3437805 4294967040
2.2618918 12.514063 2.3501992 4294967040
2.4907055 12.505544 2.3619576 4294967040
2.6949317 12.482105 2.3686991 4294967040
2.8796313 12.462516 2.3807211 4294967040
21.520107 12.434061 2.2026026 4294964480
22.51088 12.408094 2.2536914 4291476992
22.760513 12.512664 2.2850657 4294967040
22.817629 12.477197 2.2906361 4279634432
23.307405 12.586219 2.3001845 4294966784
23.517841 12.55267 2.3421278 4294960384
23.671679 12.521032 2.3552516 4294958848
23.858227 12.491266 2.3738232 4294959616
24.104425 12.452006 2.3952453 4294959616
24.223227 12.479121 2.3976166 4294955008
-17.931314 12.608135 2.2201324 4294967040
-17.715134 12.708012 2.2162561 4294967040
-11.321588 12.60204 2.3940113 4294967040
-1.639833 12.606577 2.3855205 4294967040
-1.4655647 12.610127 2.3839846 4294967040
-1.275069 12.615084 2.3500075 4294967040
-1.0764754 12.634994 2.360688 4294967040
-0.88882613 12.644814 2.3639519 4294967040
-0.69858545 12.656425 2.3215933 4294967040
-0.43078026 12.672364 2.3279181 4294967040
-0.2508716 12.691942 2.332469 4294967040
-0.057052523 12.664874 2.3137848 4294967040
0.11173904 12.643776 2.3142889 4294967040
0.2636252 12.661469 2.3094387 4294967040
0.49086472 12.620972 2.2571232 4294967040
0.68053234 12.619732 2.260107 4294967040
0.83594346 12.631943 2.2854247 4294967040
1.0577133 12.638227 2.3200173 4294967040
1.2916622 12.645193 2.3303127 4294967040
1.4907988 12.6224 2.3345368 4294967040
1.6470518 12.612922 2.3452153 4294967040
1.8834163 12.629121 2.3779984 4294967040
2.0952191 12.612979 2.3709109 4294967040
23.168159 12.60496 2.2889762 4294967040
23.680225 12.609969 2.3544316 4294960896
-17.693851 12.896646 2.2340801 4294967040
-10.727519 12.842907 2.3812954 4294967040
-10.57261 12.887502 2.3664026 4294967040
-10.160131 12.985443 2.3607404 4294967040
-9.8946905 12.933956 2.3254473 4294967040
0.11533597 12.802784 2.3434067 4294967040
0.38302854 12.807901 2.3538671 4294967040
0.46308997 12.800422 2.3550611 4294967040
-10.46224 13.145508 2.3901973 4294967040
-10.300473 13.170047 2.3841248 4294967040
-10.025685 13.13385 2.3523362 4294967040
-9.9620781 13.176399 2.3514798 4294967040
-9.7942047 13.027522 2.3275433 4294967040
21.574842 13.109105 2.2321603 4294967040
21.979048 13.084563 2.264502 4294967040
22.111151 13.025672 2.2729161 4294967040
22.2862 13.098224 2.2965772 4294967040
22.418499 13.009965 2.3065515 4294967040
-10.354004 13.216751 2.3906307 4294967040
-10.069935 13.326095 2.3741484 4294967040
-9.9371033 13.375357 2.3706284 4294967040
-9.4178915 13.398915 2.3425949 4294967040
-5.2642102 13.217042 2.2339725 4294967040
-5.1012206 13.234102 2.2198915 4294967040
-4.885601 13.242186 2.2045479 4294967040
-4.679132 13.314812 2.2145538 4294967040
21.620958 13.285477 2.2440882 4294967040
22.082752 13.309227 2.2835476 4294967040
22.217556 13.287501 2.3022823 4294967040
-17.243586 13.566038 2.2240782 4294950912
-17.180639 13.5487 2.2142944 4294948864
-10.036131 13.479401 2.3874667 4294967040
-9.8825836 13.487292 2.3782182 4294967040
-9.6642122 13.407023 2.3589118 4294967040
-9.5643044 13.405607 2.3518083 4294967040
-9.288228 13.406183 2.3346488 4294967040
-5.0154085 13.506668 2.2183695 4294967040
-4.8988667 13.527225 2.2292993 4294967040
-4.7384739 13.543137 2.2292452 4294967040
7.1632299 13.534922 2.2130756 4294967040
21.988144 13.447453 2.2820544 4294967040
22.151703 13.443453 2.3039944 4294967040
-17.778433 13.688885 2.2825043 4294960896
-17.422813 13.796372 2.2319181 4294954752
-17.267179 13.699463 2.2204502 4294952192
-17.128895 13.689453 2.2192407 4294949632
-16.999046 13.794119 2.205796 4294949632
-9.9170599 13.619341 2.3962383 4294967040
7.3142343 13.741098 2.2200458 4294967040
7.661943 13.787894 2.2076685 4294967040
-17.769867 13.846336 2.2978487 4294962688
-17.017862 13.924876 2.2160494 4294948608
-16.976181 13.952466 2.2142115 4294948352
-8.8995361 13.947687 2.3653445 4294967040
7.2081051 13.977312 2.3572347 4294967040
7.4394875 13.846989 2.2846735 4294967040
7.67275 13.962568 2.2337921 4294967040
-17.773026 14.107877 2.3184488 4294967040
-17.01819 14.118348 2.2252154 4294944512
-16.997688 14.161008 2.2269404 4294942976
-8.8528423 14.03365 2.3830657 4294967040
7.241982 14.052059 2.3549643 4294967040
7.4403749 14.022688 2.3106701 4294967040
-17.804165 14.20862 2.3331056 4294967040
-17.776011 14.34995 2.3392506 4294967040
-17.031174 14.345634 2.2349582 4294946816
-16.98863 14.330339 2.2378471 4294944768
7.2443504 14.224169 2.3810029 4294967040
-17.815687 14.582168 2.3554566 4294967040
-17.773626 14.545706 2.3529754 4294967040
-17.813393 14.731293 2.3683538 4294967040
-17.787762 14.736798 2.3639369 4294967040
-17.0495 14.743305 2.2558775 4294966528
-17.803516 14.820262 2.3814552 4294967040
-17.794048 14.907728 2.3880835 4294967040
-17.043732 14.874737 2.2666297 4294967040
-16.982368 14.93482 2.2609837 4294967040
-15.459901 14.990557 2.2966888 4294947584
-17.790874 15.069359 2.3956208 4294967040
-17.041836 15.07122 2.2866769 4294967040
-16.985365 15.165923 2.2913184 4294967040
-9.8105726 15.070533 2.2636395 4294967040
-9.7491035 15.108408 2.2502887 4294967040
-9.5927563 15.18507 2.2303061 4294967040
-17.73974 15.319792 2.3975 4294967040
-17.020195 15.264086 2.2972593 4294967040
-16.960541 15.276217 2.2941875 4294967040
-10.046672 15.22324 2.2982638 4294967040
-9.9765253 15.322758 2.3696432 4294967040
-17.04781 15.540825 2.3038983 4294967040
-16.94412 15.475531 2.3036954 4294967040
-10.017882 15.514702 2.2142453 4294967040
-9.4067888 15.568472 2.3123693 4294967040
-9.2654076 15.531065 2.2552679 4294967040
-9.0836649 15.520096 2.2478089 4294967040
-17.464249 15.737137 2.3583026 4294967040
-17.029125 15.638626 2.3103223 4294967040
-16.983522 15.783897 2.3145773 4294967040
-10.020016 15.702356 2.235034 4294967040
-9.5797882 15.737032 2.336288 4294967040
-9.2010012 15.728201 2.2605381 4294967040
-9.1917543 15.748558 2.2576575 4294967040
-8.820652 15.795844 2.2085187 4294967040
-17.414888 15.872064 2.3612568 4294967040
-17.033398 15.879163 2.3198078 4294967040
-16.912745 15.906858 2.3162692 4294967040
-9.4099426 15.901581 2.2824435 4294967040
-9.3528442 15.909332 2.2883046 4294967040
-9.1817036 15.916692 2.2570353 4294967040
-8.7310762 15.967171 2.2116799 4294967040
-8.4841232 15.988738 2.2263534 4294967040
-8.2821884 15.975868 2.2201147 4294967040
-17.391573 16.074917 2.3717251 4294967040
-17.035755 16.084606 2.334748 4294967040
-16.905983 16.045151 2.3245807 4294967040
-9.20895 16.017174 2.2492697 4294967040
-9.1051941 16.040001 2.2451453 4294967040
-8.888792 16.02702 2.2300828 4294967040
-8.7312984 16.013996 2.2174344 4294967040
-8.5469751 16.015171 2.2086263 4294967040
-8.30229 16.10878 2.2051654 4294967040
-7.8512435 16.164768 2.239825 4294967040
-17.356382 16.278818 2.3815339 4294967040
-17.045536 16.229969 2.3354597 4294967040
-16.927334 16.228897 2.3327641 4294967040
-8.404355 16.290651 2.3157024 4294967040
-8.242878 16.271616 2.2213266 4294967040
-7.9208212 16.268436 2.2532122 4294967040
-7.778017 16.330732 2.2567317 4294967040
-16.924837 16.484911 2.3425977 4294967040
-8.4668684 16.510183 2.3409362 4294967040
-8.2660036 16.46246 2.2472739 4294967040
-17.067902 16.693508 2.3719316 4294967040
-16.853691 16.709526 2.3361757 4294967040
-8.2498093 16.682043 2.2707522 4294967040
-17.042059 16.839275 2.378989 4294967040
-16.822277 16.89563 2.3385038 4294967040
-16.785549 16.965389 2.3271933 4294967040
-8.2265949 16.86652 2.2897434 4294967040
-16.831305 17.034533 2.2900448 4294967040
-16.692001 17.049896 2.3463316 4294967040
-16.685703 17.24791 2.3055615 4294967040
-16.644207 17.471928 2.3145871 4294967040
-16.621775 17.651073 2.3232841 4294967040
-16.591074 17.799702 2.330194 4294967040
-16.609913 17.868145 2.3343391 4294967040
-16.570553 17.939026 2.3372226 4294967040
-16.628016 18.078245 2.3484118 4294967040
-16.54689 18.070644 2.3437457 4294967040
-17.372793 18.227694 2.2244592 4294967040
-16.605383 18.21167 2.3533509 4294967040
-16.560047 18.25042 2.3560169 4294967040
-17.35257 18.418488 2.2384238 4294967040
-16.528393 18.429451 2.3660643 4294967040
-16.491476 18.705164 2.3825719 4294967040
-16.434835 18.887806 2.3911753 4294967040
-16.395502 18.981953 2.3922467 4294967040
-16.449242 19.057293 2.3080993 4294967040
-16.382757 19.103415 2.3998928 4294967040
-16.426935 19.292839 2.2297339 4294967040
-18.57472 19.494043 2.3168952 4294965504
-16.331011 19.58156 2.249018 4294967040
-15.952065 19.663336 2.2209044 4294967040
-15.881893 19.88662 2.2363167 4294967040
-15.781015 19.845268 2.223819 4294967040
-15.810413 20.023254 2.2448843 4294967040
-15.738228 20.103359 2.2443986 4294967040
-15.633863 20.282303 2.2541003 4294967040
-15.590611 20.263744 2.2448697 4294967040
-18.537703 20.4505 2.3890824 4294957568
-15.571625 20.47723 2.2615104 4294959616
-10.233035 20.957214 2.2295907 4294967040
-10.273404 21.037844 2.2027609 4294486528
-10.08997 21.174141 2.2071073 4294967040
-9.8315163 21.108521 2.2693646 4294967040
-10.24829 21.295166 2.2259502 4294967040
-10.079632 21.314274 2.218488 4294967040
-9.9332314 21.308563 2.2120814 4294967040
-10.078709 21.516747 2.2405989 4294967040
-9.9388466 21.469006 2.2272754 4294967040
-10.031632 21.714283 2.2566073 4294967040
-9.924818 21.689199 2.2480083 4294967040
-9.0115957 21.604675 2.2964127 4294967040
-8.8997183 21.787323 2.3124471 4294967040
-6.509253 21.685667 2.3860359 4294967040
-9.8445015 21.806232 2.254127 4294967040
-8.8466091 21.9725 2.2608113 4294967040
-8.6539288 21.978252 2.2545428 4294967040
-8.5370617 21.988876 2.2512884 4294967040
-8.3018475 21.996632 2.2439113 4294967040
-8.0772228 21.991938 2.2384033 4294967040
-7.9289751 21.985271 2.2324591 4294967040
-8.829607 22.020454 2.2987795 4294967040
-8.6492481 22.047695 2.2574718 4294967040
-8.5362606 22.03899 2.2534213 4294967040
-8.3223457 22.03841 2.245851 4294967040
-8.0959806 22.043722 2.2283545 4294967040
-7.8891864 22.078463 2.2660148 4294967040
-7.7667174 22.173439 2.2393155 4294967040
-8.8255415 22.228189 2.3534825 4294967040
-7.8059559 22.246807 2.2510769 4294967040
-7.751339 22.317249 2.2773981 4294967040
-7.5679283 22.381233 2.2537267 4294967040
-7.6793766 22.548496 2.3009014 4294967040
-7.5339036 22.491892 2.2621906 4294967040
-7.3747549 22.515427 2.2738698 4294967040
-7.0588245 22.561949 2.2975457 4294967040
-6.9414849 22.506069 2.2912889 4294967040
-17.494671 22.776367 2.2463868 4294967040
-7.6266127 22.652451 2.2830541 4294967040
-7.5015974 22.720245 2.2830222 4294967040
-6.8987484 22.688866 2.308815 4294967040
-17.884771 22.979002 2.2798965 4294964224
-17.737949 22.956161 2.2709968 4294963968
-17.466637 22.801949 2.2483282 4294967040
-7.5035434 22.82209 2.295424 4294967040
-17.947853 23.109711 2.2871041 4294966784
-17.674414 23.104774 2.2771986 4294967040
-17.63378 23.496899 2.2852643 4294967040
-17.521961 23.50079 2.2742658 4294967040
-17.383142 23.530659 2.2769246 4294967040
-18.021866 23.793694 2.3422511 4294945536
-17.922457 23.706585 2.3078871 4294962688
-17.510475 23.708933 2.2863946 4294967040
-17.04039 23.767361 2.2148943 4294967040
-16.933468 23.765274 2.2172973 4294967040
-18.078472 23.837595 2.3380015 4294942720
-17.414284 23.879681 2.292666 4294967040
-16.929291 23.814308 2.2148435 4294967040
-17.41004 24.082874 2.3056498 4294967040
-17.004662 24.088411 2.2371445 4294967040
-16.971113 24.06477 2.2334723 4294967040
-17.412142 24.230682 2.3162844 4294967040
-17.038242 24.360634 2.2481933 4294967040
-16.985619 24.370157 2.2433333 4294967040
-17.417307 24.468925 2.3256612 4294967040
-16.884394 24.415148 2.2424514 4294967040
-16.716198 24.487316 2.2424502 4294967040
-16.689873 24.752983 2.2595224 4294967040
-16.679834 24.964914 2.2692552 4294967040
-16.434546 24.993168 2.2135527 4294957568
-16.690907 25.114151 2.2795815 4294967040
-16.553307 25.09511 2.2676458 4294956544
-16.664942 25.294666 2.2899659 4294956032
-16.542089 25.297277 2.2698798 4294952960
-16.327612 25.29483 2.2116361 4294947584
-16.688051 25.414614 2.300235 4294955520
-16.553728 25.501869 2.2851653 4294945792
-16.311466 25.447086 2.227299 4294943488
-16.391376 25.641939 2.2479041 4294937088
-13.322838 -15.079328 2.585521 4294967040
20.991856 -5.4104428 2.4214451 4294967040
21.102365 -5.4194393 2.4488115 4294967040
21.299955 -5.4363127 2.4686613 4294967040
21.546698 -5.4589405 2.5087185 4294967040
21.655716 -5.4678001 2.5182605 4294967040
21.926975 -5.4996204 2.5504823 4294967040
22.021069 -5.5145574 2.5473487 4294948864
20.140987 -5.2446852 2.4000981 4294967040
20.370806 -5.2289619 2.4272404 4294967040
20.496235 -5.319643 2.4197965 4294967040
20.709953 -5.3256564 2.4464498 4294967040
20.896675 -5.3932829 2.4284613 4294967040
21.031185 -5.3581114 2.4859715 4294967040
21.397972 -5.3683305 2.5547841 4294967040
17.117195 -5.0347414 2.5218387 4294967040
17.268669 -5.0604029 2.5329061 4294967040
17.533705 -5.0874252 2.5635922 4294967040
17.713497 -5.1070566 2.5852056 4294967040
19.7908 -5.0734291 2.4072108 4294967040
19.932343 -5.1036739 2.4103591 4294967040
20.130947 -5.1291685 2.4235532 4294967040
20.277 -5.1341391 2.4238451 4294967040
20.472664 -5.1637506 2.4491248 4294967040
-17.722919 -4.8631172 2.4026437 4294937600
16.407448 -4.8055663 2.4029596 4294967040
16.99099 -4.9616275 2.5585527 4294967040
17.119846 -4.9781113 2.5654643 4294967040
17.241442 -4.9947481 2.5771732 4294967040
21.127954 -4.8573351 2.4232774 4294957568
21.217789 -4.9075537 2.4330668 4294950400
21.493042 -4.9031668 2.4680872 4294948608
21.744444 -4.9155293 2.5000498 4294944512
21.871544 -4.9232912 2.5154676 4294944512
22.04961 -4.8736229 2.512615 4294942208
22.262764 -4.9245148 2.5528731 4294940416
22.505882 -4.8838563 2.560359 4294938112
22.766529 -4.8594809 2.5814929 4294935808
22.853857 -4.8070827 2.5680926 4294936064
-13.797565 -4.602684 2.4736466 4294935552
15.106724 -4.6348248 2.4359529 4294967040
15.363609 -4.6573353 2.4825692 4294956544
15.477796 -4.6112213 2.5270698 4294966528
16.348766 -4.7030067 2.409111 4294967040
16.485708 -4.7957921 2.421833 4294967040
21.293669 -4.7362304 2.4389184 4294951168
21.646673 -4.7710242 2.4601164 4294947072
21.914986 -4.7650843 2.4839983 4294943744
22.233147 -4.7487483 2.4725623 4294940416
22.434374 -4.6638527 2.4423313 4294938368
22.664646 -4.7901435 2.5426917 4294936832
22.941008 -4.7883372 2.5762699 4294935296
23.018181 -4.7743392 2.5792422 4294934528
-18.001141 -4.445848 2.4239807 4294942720
-14.15092 -4.4871764 2.5395913 4294936576
-13.894087 -4.4702506 2.5014367 4294948864
-13.748453 -4.500021 2.4763601 4294949376
12.734164 -4.4435883 2.4189618 4294967040
12.91833 -4.4619646 2.4589121 4294967040
13.057799 -4.496347 2.4124625 4294967040
13.383486 -4.507513 2.4233918 4294967040
13.483335 -4.5099392 2.4544816 4294967040
13.683528 -4.5454988 2.5148783 4294967040
13.860185 -4.5439506 2.5245461 4294967040
14.786113 -4.4082751 2.4076171 4294967040
14.950109 -4.5630975 2.4311917 4294967040
15.108413 -4.5021763 2.462904 4294967040
15.284249 -4.4402075 2.4978657 4294965504
15.560776 -4.4619474 2.5481586 4294964992
15.844121 -4.4861155 2.5997877 4294966272
16.879019 -4.5199475 2.569181 4294967040
17.283623 -4.485096 2.5959761 4294967040
21.097921 -4.5165796 2.4108782 4294963200
21.313377 -4.4635048 2.4297159 4294955776
21.42482 -4.537674 2.4512422 4294955776
21.709602 -4.5340548 2.4859052 4294958592
21.974243 -4.4924755 2.5096028 4294953216
22.041016 -4.5297794 2.5205693 4294947328
22.371931 -4.521266 2.559468 4294948864
22.460606 -4.5567293 2.5708578 4294941184
22.697872 -4.5513663 2.5987401 4294942464
26.771656 -4.4135132 2.4616234 4294967040
27.056267 -4.4120431 2.4893036 4294967040
27.673008 -4.4613328 2.5655479 4294967040
28.020849 -4.4765754 2.5949087 4294967040
-17.864197 -4.3342099 2.4115682 4294947328
-14.027901 -4.2163506 2.5230443 4294967040
-13.926779 -4.3037643 2.5027542 4294961920
-13.768598 -4.2180972 2.4557698 4294955776
-11.283454 -4.3054008 2.5864804 4294967040
-11.075455 -4.3190112 2.5479224 4294967040
-10.911937 -4.3552775 2.5255196 4294967040
-9.8208466 -4.3297949 2.405833 4294967040
11.164682 -4.3115873 2.4321451 4294967040
11.241488 -4.3343511 2.4581888 4294967040
11.450672 -4.3285351 2.5301423 4294967040
12.116844 -4.2109103 2.4123826 4294967040
12.526041 -4.2069573 2.4931026 4294967040
12.765486 -4.2328453 2.5415435 4294967040
12.914516 -4.2421174 2.5734339 4294967040
13.295357 -4.3898768 2.4361954 4294967040
14.880184 -4.2131958 2.4272652 4294967040
15.147796 -4.223022 2.4466581 4294967040
15.396791 -4.2468925 2.5210156 4294967040
15.4101 -4.2333269 2.4651341 4294967040
15.683287 -4.2504263 2.5452981 4294967040
16.059902 -4.2611046 2.590548 4294967040
16.947918 -4.2430959 2.5503793 4294967040
17.055248 -4.2226205 2.5736122 4294967040
17.330437 -4.3075919 2.5939033 4294967040
17.410391 -4.2211523 2.588275 4294967040
20.119791 -4.2129984 2.4085436 4294967040
20.313509 -4.2233191 2.4109454 4294967040
20.555857 -4.2600384 2.4077234 4294967040
20.722233 -4.2593946 2.4341578 4294967040
20.895334 -4.2885838 2.4132018 4294967040
21.092384 -4.3187151 2.4374065 4294967040
21.286797 -4.3293142 2.4528852 4294967040
21.566189 -4.3136578 2.4951944 4294967040
21.627949 -4.3043137 2.5286424 4294967040
21.890799 -4.2664566 2.5235434 4294964480
22.052008 -4.2865782 2.5521314 4294962944
22.261757 -4.2837539 2.5688231 4294960384
22.554817 -4.2450304 2.588448 4294952448
22.688393 -4.3700924 2.5667982 4294947584
22.904045 -4.3689146 2.5729034 4294945536
25.994717 -4.3579283 2.4069607 4294967040
26.29071 -4.3792019 2.4286172 4294967040
26.541693 -4.3833618 2.4535465 4294967040
26.733459 -4.3907547 2.4661012 4294967040
26.926468 -4.357059 2.4929814 4294967040
27.091633 -4.3552904 2.5015872 4294967040
27.308634 -4.3441792 2.5119994 4294967040
27.412487 -4.3894191 2.548491 4294967040
-14.211826 -4.0033698 2.5296936 4294967040
-14.034714 -4.0920272 2.5631394 4294967040
-13.990721 -4.0698252 2.4842525 4294967040
-13.642026 -4.1665621 2.5186081 4294960640
-11.236861 -4.0547533 2.5514092 4294967040
-11.15562 -4.0279989 2.5753512 4294967040
-10.955036 -4.0240016 2.5126138 4294967040
12.155521 -4.1548748 2.4135604 4294967040
12.280584 -4.1822038 2.4416022 4294967040
12.432755 -4.1796894 2.4853935 4294967040
13.150114 -4.0414343 2.4163322 4294967040
13.263847 -4.0419421 2.4166925 4294967040
13.467535 -4.0460024 2.4374812 4294967040
13.729868 -4.059804 2.4926059 4294967040
13.906001 -4.00736 2.4333832 4294967040
14.140358 -4.051712 2.5441394 4294967040
14.264454 -4.0739012 2.5638759 4294967040
14.475214 -4.0943813 2.566361 4294967040
14.673635 -4.0357103 2.440943 4294967040
14.900869 -4.0493155 2.4623215 4294967040
15.151402 -4.0495205 2.4472103 4294967040
15.316794 -4.0222101 2.418015 4294967040
15.519436 -4.0352941 2.5286849 4294967040
15.717675 -4.0782719 2.5244455 4294967040
15.940862 -4.0493469 2.4806037 4294967040
16.125023 -4.1219945 2.4727285 4294967040
16.326696 -4.0620203 2.5337467 4294967040
16.520935 -4.0698309 2.5620694 4294967040
16.727291 -4.079174 2.5872109 4294967040
16.881874 -4.0906496 2.4545274 4294967040
17.099207 -4.0989585 2.4856226 4294967040
17.310879 -4.106586 2.5189154 4294967040
17.550108 -4.0603409 2.507031 4294967040
17.737213 -4.0484638 2.5308423 4294967040
17.8937 -4.0202575 2.5310922 4294967040
18.105785 -4.0155773 2.5565784 4294967040
18.280464 -4.104713 2.5905805 4294967040
19.861778 -4.1960154 2.4101963 4294967040
20.022667 -4.1987052 2.4238136 4294967040
20.457193 -4.0606222 2.4033141 4294967040
20.771181 -4.0873961 2.4432955 4294967040
21.12175 -4.1128159 2.408577 4294967040
21.308334 -4.0946474 2.4433823 4294967040
21.490591 -4.0818214 2.4347939 4294967040
21.758602 -4.0619493 2.4612772 4294959104
21.875879 -4.0859423 2.4913697 4294959616
22.142517 -4.0713081 2.5026886 4294961920
22.24345 -4.1279554 2.5425591 4294962176
22.511747 -4.0834026 2.5489712 4294954496
22.631847 -4.0815673 2.5813005 4294950656
22.83831 -4.0881548 2.5948796 4294949888
26.787884 -4.1249681 2.4668355 4294967040
26.880274 -4.1420131 2.4842339 4294967040
27.105762 -4.1550074 2.4994898 4294967040
27.220779 -4.1883726 2.5014381 4294967040
-18.089388 -3.8796673 2.4792812 4294941440
-17.94305 -3.9592917 2.4494836 4294939392
-14.626268 -3.8863676 2.5672216 4294941184
-14.445027 -3.8586464 2.537137 4294956032
-14.242769 -3.8477509 2.5410655 4294967040
-14.056783 -3.8730066 2.5630934 4294967040
-13.938415 -3.8405991 2.5590913 4294967040
-13.74674 -3.8672976 2.538213 4294966272
-11.457799 -3.8350339 2.5721428 4294967040
-11.276964 -3.8795085 2.5467854 4294967040
-11.043259 -3.9152427 2.5219374 4294967040
-10.991236 -3.9399583 2.5135994 4294967040
11.603065 -3.8033342 2.5176699 4294967040
11.954683 -3.9205494 2.4050875 4294967040
12.141252 -3.9269352 2.445797 4294967040
12.305697 -3.9303811 2.4756596 4294967040
12.496896 -3.9404933 2.5107677 4294967040
12.69315 -3.9509869 2.5511143 4294967040
12.926014 -3.956574 2.5887549 4294967040
13.021864 -3.95716 2.5939376 4294967040
13.236819 -3.9659841 2.5992181 4294967040
13.548127 -3.9848087 2.4149854 4294967040
13.740639 -3.8966463 2.4550776 4294967040
13.853676 -3.8877831 2.4749961 4294967040
14.115903 -3.8622866 2.5219321 4294967040
14.347396 -3.9569221 2.4242735 4294967040
14.527377 -3.9646766 2.4690948 4294967040
14.678194 -3.9534249 2.4706912 4294967040
14.845013 -3.9390788 2.5079546 4294967040
15.106075 -3.9581027 2.4781771 4294967040
15.246892 -3.8553119 2.5297589 4294967040
15.489386 -3.9076226 2.5444312 4294967040
15.695844 -3.8587029 2.5593939 4294967040
15.912293 -3.9301188 2.5761585 4294967040
16.717501 -3.9351988 2.4084935 4294967040
16.912582 -3.9389713 2.4407983 4294967040
17.067642 -3.9607959 2.4413199 4294967040
17.29809 -3.9850702 2.427547 4294967040
17.489971 -3.9814916 2.4757719 4294967040
17.678288 -3.9877629 2.4885511 4294967040
17.931391 -3.9953845 2.5446711 4294967040
18.091667 -3.9428256 2.5643282 4294967040
18.263813 -3.993814 2.5888615 4294967040
21.531315 -3.8664877 2.4318633 4294949888
21.864208 -3.8735197 2.4726458 4294945792
22.226799 -3.8830762 2.5171485 4294951680
22.61377 -3.9359581 2.5665169 4294942976
-18.08164 -3.7023501 2.4734583 4294951424
-14.433832 -3.7026396 2.5299897 4294961920
-14.26823 -3.642602 2.5501559 4294967040
-14.083975 -3.73107 2.5657263 4294967040
-13.899813 -3.7447109 2.5729995 4294967040
-13.781277 -3.7596264 2.539237 4294967040
-11.502857 -3.7078118 2.5719745 4294967040
-11.232444 -3.7024052 2.5746222 4294967040
-11.067146 -3.694926 2.5737178 4294967040
-10.951474 -3.6937835 2.5682073 4294967040
-8.0245485 -3.7254183 2.4127512 4294950400
11.575359 -3.7589848 2.5082102 4294967040
11.673839 -3.7543511 2.520256 4294967040
12.620547 -3.6498749 2.54355 4294967040
14.184411 -3.629405 2.5918787 4294947072
14.507605 -3.6380332 2.4182158 4294962432
14.730607 -3.6287117 2.4607322 4294961408
14.959202 -3.6780276 2.4623504 4294967040
15.104033 -3.7503135 2.5917842 4294967040
15.271515 -3.648566 2.5578475 4294967040
15.440306 -3.727457 2.5854378 4294967040
18.167549 -3.6873593 2.5546112 4294967040
18.293915 -3.7558699 2.5375359 4294967040
18.434677 -3.7323413 2.5592721 4294967040
21.11434 -3.7668319 2.4020185 4294957824
21.438004 -3.7748966 2.4421465 4294955264
21.760237 -3.7769818 2.4819744 4294951936
22.090715 -3.775043 2.5227513 4294953728
22.44981 -3.7803977 2.5672739 4294954240
-14.524502 -3.4850531 2.5292907 4294967040
-14.255876 -3.4415765 2.5632677 4294967040
-14.053695 -3.4882507 2.5695198 4294967040
-13.877302 -3.4875181 2.5436466 4294967040
-12.223481 -3.4505725 2.4442012 4294967040
-12.174145 -3.4429877 2.44172 4294967040
-11.622583 -3.5054095 2.592931 4294967040
-11.467503 -3.5099063 2.5562859 4294967040
-11.248944 -3.4798017 2.5830488 4294967040
-11.077527 -3.4633265 2.5738149 4294967040
-10.996958 -3.5074069 2.5775466 4294967040
-10.131823 -3.5533054 2.5084438 4294967040
-9.8714752 -3.4766288 2.5339093 4294967040
14.125381 -3.5277607 2.5932953 4294947072
14.230923 -3.4619851 2.5967991 4294946560
15.159544 -3.5979431 2.5889068 4294967040
15.294285 -3.4776273 2.5846114 4294967040
15.451838 -3.4955659 2.5894723 4294967040
18.173243 -3.5794971 2.5122917 4294967040
