# .PCD v0.7 - Point Cloud Data file format
VERSION 0.7
FIELDS x y z rgb
SIZE 4 4 4 4
TYPE F F F U
COUNT 1 1 1 1
WIDTH 1115
HEIGHT 1
VIEWPOINT 0 0 0 1 0 0 0
POINTS 1115
DATA ascii
11.848922 -3.8036499 0.61450517 4294949632
12.282645 -3.8241606 0.63339692 4294967040
12.335215 -3.8596096 0.64041352 4294963456
12.647728 -3.8516273 0.63689208 4294932480
12.988407 -3.8860669 0.65577161 4294959104
19.081291 -3.8549938 0.68812764 4294967040
19.14518 -3.8597736 0.67865485 4294967040
19.209591 -3.8635759 0.68661153 4294967040
22.858303 -3.8219929 0.63085604 4294967040
28.039749 -3.8340936 0.6751641 4286985728
28.377258 -3.8165803 0.64481926 4291404032
0.7604652 -3.7856703 0.68228024 4294961408
0.80740237 -3.7218337 0.65994024 4294967040
1.366641 -3.7415683 0.64327085 4294967040
1.4429677 -3.7296515 0.66301155 4294964736
1.545939 -3.7187548 0.64086509 4294965504
1.6557739 -3.7169442 0.65220791 4294967040
1.7347279 -3.7414088 0.6409781 4294967040
1.8726724 -3.7418051 0.62204027 4294967040
1.9521031 -3.7408502 0.64616907 4294967040
2.0101585 -3.7320986 0.63926351 4294965760
2.1398101 -3.7674804 0.62438512 4294957568
2.2336276 -3.7738118 0.61691618 4294952192
2.3341928 -3.7672317 0.61403608 4294962944
2.437767 -3.7607083 0.62013483 4294967040
2.5562484 -3.7247829 0.66190231 4294967040
2.6319647 -3.7157402 0.60604322 4294967040
2.7429736 -3.7256851 0.65967202 4294967040
2.8593512 -3.7347445 0.64908111 4294967040
2.9521573 -3.7358532 0.636581 4294967040
3.0333495 -3.7517767 0.60892785 4294967040
3.1714606 -3.7658362 0.68104064 4294967040
3.2467024 -3.7814589 0.60945618 4294967040
3.3462882 -3.7499306 0.68424785 4294967040
3.4239507 -3.7914472 0.67778766 4294967040
3.5641963 -3.7700801 0.65861475 4294967040
3.675561 -3.7224271 0.60920775 4294967040
3.9116497 -3.7894111 0.66218621 4294967040
4.0404139 -3.7876031 0.66527736 4294967040
4.2537804 -3.7395716 0.64172179 4294967040
5.391367 -3.7887928 0.67132837 4294967040
5.4264517 -3.7823448 0.64358485 4294967040
5.9905596 -3.739604 0.64034808 4294967040
6.9150672 -3.777456 0.66990584 4294965504
7.2426052 -3.7271168 0.66939169 4294967040
7.5508628 -3.7330029 0.64523572 4294967040
7.6409492 -3.7171755 0.65859771 4294967040
9.5287018 -3.7361455 0.63513398 4294967040
9.6916599 -3.7021379 0.65431607 4294965248
9.7515087 -3.7065566 0.63810426 4294967040
9.8179884 -3.7259169 0.60516518 4294962944
9.9248981 -3.7239006 0.62217015 4294967040
10.378782 -3.7932017 0.64874601 4294959872
10.438798 -3.7414615 0.63764036 4294958592
10.592329 -3.7215014 0.69767141 4294964736
10.635437 -3.7401187 0.67824024 4294961408
10.862349 -3.7199674 0.62202525 4294967040
10.901329 -3.76542 0.64371061 4294964224
12.285093 -3.7683663 0.6608386 4294967040
12.326345 -3.7760901 0.62891132 4294967040
23.754759 -3.7099993 0.67154843 4294967040
28.171106 -3.7920256 0.65837324 4285020160
28.249813 -3.7582884 0.66803175 4288309504
28.384022 -3.7763791 0.66507536 4292065024
-1.4880528 -3.6183968 0.67429328 4294963456
-1.1964723 -3.6443779 0.60507947 4294949632
0.85481274 -3.6768084 0.66423082 4294967040
0.94922239 -3.6555057 0.66883498 4294967040
1.0623519 -3.6624875 0.64286894 4294957056
1.1392395 -3.6702161 0.6362499 4294952960
1.2596748 -3.6814547 0.65436959 4294952192
1.3179333 -3.6936181 0.67438567 4294967040
1.6087159 -3.695437 0.64707059 4294965760
2.5419607 -3.6761179 0.68442029 4294967040
2.6379323 -3.6987288 0.64045757 4294963968
4.2550855 -3.6296697 0.61947078 4294967040
4.8603187 -3.6143651 0.6788677 4294967040
5.4280157 -3.6520185 0.6189518 4294967040
5.992898 -3.6691992 0.64707297 4294967040
6.0019884 -3.6202607 0.65988636 4294967040
6.5216665 -3.6309052 0.60851419 4294967040
6.6331639 -3.643254 0.64129519 4294967040
6.8367276 -3.6245582 0.62912083 4294959360
6.9552922 -3.6734314 0.64493757 4294958080
7.0807295 -3.6383224 0.64244115 4294961408
7.4287038 -3.6098425 0.62078112 4294967040
8.2246342 -3.6205363 0.62122065 4294930688
9.5570621 -3.6843345 0.61568171 4294967040
9.6430607 -3.6737041 0.61818635 4294966016
9.7193546 -3.659936 0.60987973 4294965760
9.8274183 -3.696979 0.60303336 4294952960
10.416646 -3.6922412 0.6072669 4294950400
10.594134 -3.6396232 0.6593442 4294965760
10.608425 -3.6115413 0.67405283 4294962432
10.759097 -3.6067572 0.67197764 4294965248
10.876865 -3.6396723 0.63107973 4294967040
11.124344 -3.6372793 0.69296336 4294947840
11.44556 -3.6575313 0.60810393 4294935808
11.794749 -3.6831508 0.66968066 4294939136
12.2656 -3.6845703 0.64798194 4294962432
12.464215 -3.6664715 0.65389729 4294957568
16.827541 -3.6472812 0.69315881 4294948352
22.957378 -3.6580935 0.62345237 4294943232
23.746584 -3.6763759 0.66013527 4294967040
28.175383 -3.6566393 0.68707889 4287582976
28.234278 -3.6803789 0.65276206 4291396352
28.377819 -3.6586814 0.63650393 4292191232
-1.4294622 -3.5565987 0.67243987 4294967040
-1.3590827 -3.5163593 0.66938257 4294953984
-1.2780215 -3.5101452 0.61152762 4294949120
-1.1484475 -3.5439608 0.68449938 4294966528
-1.0623696 -3.5114515 0.63245922 4294964992
0.87044287 -3.5426276 0.67914188 4294967040
0.91046119 -3.5059032 0.62681431 4294967040
2.4874125 -3.556761 0.64405316 4294966784
3.0546646 -3.5817702 0.68697596 4294967040
3.2852154 -3.5919213 0.69802505 4294967040
3.5014822 -3.5001817 0.66071188 4294950144
4.873744 -3.5313227 0.66244811 4294967040
4.9952455 -3.5405805 0.65103692 4294967040
5.4394369 -3.5057268 0.69278866 4294967040
5.5318837 -3.5215492 0.63015604 4294967040
5.6536732 -3.5519843 0.61322606 4294957056
5.7241273 -3.5653358 0.6300869 4294967040
5.9724674 -3.5336366 0.69056034 4294967040
6.01019 -3.5480001 0.66656744 4294967040
6.5328746 -3.5692778 0.61387026 4294967040
6.7489061 -3.5514526 0.61007583 4294957824
6.8615336 -3.5443306 0.66539776 4294959104
6.9543667 -3.556694 0.62883389 4294959104
7.3944483 -3.5799854 0.61026847 4294967040
7.4445801 -3.5911527 0.6198349 4294967040
8.2175026 -3.5277581 0.61935866 4294938624
9.5789289 -3.5789888 0.69106531 4294967040
9.6269522 -3.52458 0.68316311 4294963968
9.7434082 -3.5939944 0.6941663 4294967040
10.438283 -3.5324028 0.60757583 4294959872
10.645502 -3.5826397 0.6585831 4294967040
10.855766 -3.5413928 0.67176938 4294965760
11.56164 -3.508688 0.64906836 4294946304
11.973783 -3.5291157 0.61181593 4294937088
12.054472 -3.5183208 0.61239171 4294944000
12.26574 -3.5854063 0.65115094 4294935808
12.362406 -3.5660384 0.66697228 4294967040
16.45262 -3.5399342 0.69441563 4294967040
23.761059 -3.5318532 0.64202476 4294941440
24.248947 -3.5426826 0.64626878 4294955520
28.246603 -3.554338 0.63584977 4289814528
28.429615 -3.5657701 0.65509778 4293105152
-1.56038 -3.405998 0.66404295 4294967040
-1.4657673 -3.470109 0.60172147 4294963456
-1.3719485 -3.4688649 0.68730903 4294963200
-1.0719736 -3.4850974 0.63547623 4294961408
-0.069257796 -3.4027777 0.68588173 4294953984
0.28663373 -3.4344039 0.6335544 4294967040
0.40282029 -3.4539015 0.60720265 4294967040
0.62860668 -3.4636385 0.6872955 4294967040
0.75682336 -3.4811578 0.68869448 4294967040
0.88968778 -3.4982698 0.66890007 4294967040
0.9084866 -3.4989181 0.66929168 4294967040
1.3750956 -3.4216299 0.61915803 4294947328
3.060209 -3.4357321 0.65800983 4294967040
3.1178112 -3.4720252 0.66352057 4294957568
4.6695261 -3.4452024 0.68730438 4294963456
4.9139595 -3.4236569 0.67672932 4294967040
5.0337768 -3.4086895 0.64739317 4294967040
5.481905 -3.475203 0.68684798 4294967040
6.9340453 -3.4759848 0.64539146 4294960128
7.019937 -3.4373 0.61522043 4294961664
8.1659327 -3.4031086 0.60758585 4294948608
8.2288218 -3.4683433 0.61126953 4294943232
9.6722097 -3.4665179 0.66969573 4294967040
10.474247 -3.4765735 0.61891097 4294964736
10.558115 -3.4773748 0.6196593 4294966528
10.654142 -3.4157805 0.6905207 4294967040
10.738822 -3.4619942 0.69902438 4294967040
10.819769 -3.4411359 0.66648459 4294965504
10.940475 -3.4547102 0.6458776 4294965504
11.451808 -3.4811871 0.68790799 4294939392
11.527205 -3.4324956 0.67817402 4294942464
11.95507 -3.4192691 0.66514564 4294941952
12.1889 -3.4358735 0.65977144 4294932224
12.271383 -3.4335656 0.65087759 4294967040
12.327746 -3.4240766 0.63699508 4294967040
16.591038 -3.4131489 0.6036489 4294967040
16.679192 -3.4178171 0.62824857 4294967040
16.72323 -3.4198885 0.66805887 4294967040
23.765728 -3.4585419 0.6328907 4294933760
23.807428 -3.424686 0.68259454 4294937856
24.148777 -3.4346323 0.62735522 4294941952
28.065716 -3.4764833 0.66947806 4288628736
28.163204 -3.4470563 0.63906181 4289287424
28.409874 -3.4564576 0.65618718 4293698048
-2.1392536 -3.3514659 0.68797541 4294967040
-2.0689421 -3.3621137 0.67100549 4294964736
-1.9574112 -3.3842368 0.65165353 4294965504
-1.837182 -3.3724952 0.61847687 4294967040
-1.7824045 -3.390897 0.61728781 4294963968
-1.6465044 -3.3839216 0.68621552 4294957056
-1.5553365 -3.3203073 0.65572906 4294954752
-1.3430743 -3.3717067 0.60598552 4294945536
-0.87910372 -3.3922272 0.6745382 4294961152
-0.6376363 -3.3437204 0.68565774 4294967040
-0.56112063 -3.3256953 0.68256211 4294967040
-0.45114124 -3.3610802 0.6840955 4294967040
1.2942616 -3.3815877 0.62188435 4294947584
2.6309824 -3.3204727 0.63539612 4294964736
2.7414961 -3.3308198 0.64245766 4294962944
2.9554577 -3.3659635 0.63775837 4294960384
3.0175145 -3.3742161 0.6382255 4294962176
4.2966037 -3.303931 0.6707499 4294967040
4.3537102 -3.3041241 0.66919982 4294967040
4.4476728 -3.3128173 0.675367 4294967040
4.5277634 -3.3345866 0.6681875 4294958592
4.6517496 -3.3714447 0.66233909 4294967040
4.7960477 -3.3318934 0.67009413 4294967040
4.8217444 -3.3345189 0.69515657 4294967040
4.9104214 -3.3887467 0.6274153 4294967040
5.092329 -3.3895221 0.647461 4294967040
5.8609257 -3.326936 0.69994968 4294967040
5.9834294 -3.3644476 0.68015289 4294967040
7.1303759 -3.3571296 0.63263071 4294967040
7.2904334 -3.3496282 0.68177271 4294966272
8.1846447 -3.3470623 0.60467172 4294948864
8.223897 -3.3237712 0.65645283 4294967040
9.0719604 -3.333406 0.6925059 4294939136
9.6836281 -3.3498554 0.66425395 4294967040
9.7259903 -3.3606825 0.63236523 4294966016
10.648273 -3.3281388 0.64554578 4294967040
10.750782 -3.3409004 0.63747895 4294966784
10.839608 -3.3202002 0.66755033 4294967040
11.564321 -3.3702512 0.63763344 4294941440
11.677412 -3.3595438 0.6300087 4294946560
11.745657 -3.3612347 0.610668 4294942208
11.843258 -3.3474102 0.60549676 4294941440
11.946096 -3.3626487 0.60710001 4294947328
12.042091 -3.3829992 0.60814929 4294947584
12.155428 -3.3761983 0.62326437 4294960896
12.226145 -3.3768039 0.61895919 4294967040
12.34197 -3.3966737 0.61945409 4294967040
16.591297 -3.3769517 0.61166674 4294967040
16.618591 -3.386987 0.64159721 4294967040
16.719978 -3.3899205 0.67006433 4294967040
23.784073 -3.335906 0.64087343 4294940160
28.123344 -3.3725266 0.64737296 4288892672
28.461393 -3.3436847 0.6397835 4294085376
-1.5124886 -3.2863126 0.69401932 4294947840
-1.4883487 -3.2619519 0.66593182 4294938368
-1.2191116 -3.2749109 0.63110667 4294959104
-0.58239442 -3.2961898 0.67216325 4294966016
-0.47265768 -3.222362 0.65862858 4294967040
3.0957518 -3.2320342 0.62131399 4294964736
3.3131447 -3.223392 0.62778765 4294955264
3.725035 -3.2146316 0.60513568 4294959872
3.9049501 -3.208509 0.61099219 4294945280
4.0376329 -3.2659836 0.62299597 4294948096
4.2951651 -3.2980938 0.69315183 4294967040
4.3310218 -3.2970512 0.64824271 4294964480
4.4307923 -3.299866 0.6324873 4294957568
4.5228138 -3.2785823 0.62827408 4294944768
4.7869778 -3.2874415 0.67090589 4294967040
6.0234823 -3.2918127 0.68051034 4294967040
7.134203 -3.25652 0.69062161 4294967040
7.8573689 -3.2717412 0.68607849 4294967040
7.9658093 -3.2581673 0.66923934 4294967040
8.0546379 -3.2328486 0.64802778 4294964480
8.1591177 -3.2926619 0.62053275 4294961152
8.4744453 -3.2880375 0.69521242 4294937600
9.125699 -3.2599959 0.65273958 4294953984
10.342516 -3.234941 0.61526811 4294967040
10.464373 -3.2749343 0.61181039 4294961152
10.586161 -3.238883 0.62172395 4294967040
10.623072 -3.290246 0.63092363 4294967040
10.883509 -3.2779174 0.65210235 4294967040
10.912016 -3.2866182 0.68129241 4294967040
11.084541 -3.2133725 0.68001008 4294937856
11.134337 -3.2107377 0.67207229 4294938112
11.226795 -3.2192631 0.65424436 4294930432
11.353569 -3.2131176 0.63538253 4294944000
11.47889 -3.2328229 0.67649764 4294948608
11.530698 -3.2403955 0.68463469 4294960896
11.61002 -3.2599335 0.65749323 4294951424
23.79579 -3.2563705 0.64673489 4294943744
24.280956 -3.2526314 0.62319946 4294945536
28.098732 -3.2174337 0.63421482 4290358016
28.365507 -3.2143104 0.64556646 4294691584
28.430368 -3.2299445 0.64924145 4294556672
-0.82023513 -3.1426218 0.6519829 4294967040
-0.78286833 -3.1348147 0.67584217 4294967040
-0.61596179 -3.1379957 0.6363548 4294967040
-0.5240438 -3.1297827 0.63926601 4294967040
-0.41046467 -3.1733618 0.65825057 4294967040
-0.39348251 -3.1434176 0.64995158 4294967040
0.75255769 -3.1186922 0.67327958 4294962944
0.85907096 -3.1112933 0.65817386 4294964224
1.1450605 -3.1038041 0.6170913 4294964736
3.0611081 -3.1818483 0.65098 4294961664
3.1641233 -3.1638329 0.60750961 4294967040
3.4426508 -3.1597118 0.60669947 4294967040
3.5247262 -3.1309857 0.60599303 4294967040
3.7694848 -3.1387763 0.60982442 4294963456
3.8632474 -3.1548142 0.62455881 4294945024
3.964287 -3.138021 0.6210866 4294943744
4.0149584 -3.1239562 0.62770844 4294942976
4.184413 -3.1332231 0.68806493 4294964480
4.2326899 -3.1586847 0.63651139 4294967040
4.335187 -3.1674242 0.64228952 4294958080
4.5366096 -3.1636887 0.66163301 4294950656
5.5875478 -3.1623716 0.65491331 4294951424
5.6205363 -3.1897857 0.65754986 4294965504
7.1607399 -3.150161 0.64351439 4294967040
8.2350082 -3.1771483 0.6253956 4294955520
8.6103745 -3.1215463 0.62104571 4294962176
8.8602648 -3.1212401 0.64531529 4294941952
9.0701199 -3.1603751 0.61182284 4294966528
9.7404156 -3.1516228 0.65875959 4294967040
10.129133 -3.1083555 0.63066852 4294967040
10.268095 -3.1206033 0.69036674 4294966016
10.343129 -3.1092367 0.69445658 4294967040
10.461101 -3.1178961 0.68682516 4294967040
10.520604 -3.1308231 0.68311155 4294967040
10.611717 -3.1455674 0.66312313 4294967040
11.095261 -3.1933899 0.63634026 4294939392
11.158644 -3.1933162 0.64768487 4294928896
23.828857 -3.1567554 0.62916929 4294942464
28.113518 -3.1655211 0.6377455 4291023104
28.461292 -3.1279006 0.63635653 4294940160
2.8641682 -3.0521147 0.63554215 4294967040
2.9363661 -3.0570502 0.62299418 4294967040
3.0330567 -3.0467737 0.61769587 4294960640
3.1538069 -3.0639114 0.61110514 4294956800
3.266655 -3.0608211 0.62171829 4294967040
3.3314648 -3.0912118 0.60535729 4294967040
3.487911 -3.059586 0.6184622 4294967040
3.5268083 -3.0407228 0.64075315 4294967040
3.6402102 -3.0154042 0.62055349 4294963968
3.757648 -3.0506363 0.62292838 4294958592
3.8361063 -3.0720468 0.63614988 4294931968
4.1745114 -3.0235629 0.65414345 4294960128
4.2062783 -3.0507076 0.6892221 4294963456
4.3767986 -3.0111375 0.62485969 4294965760
4.7622423 -3.0340652 0.63023198 4294948608
5.0592918 -3.0335784 0.69906676 4294966784
7.1529388 -3.0523448 0.65929544 4294967040
7.6958513 -3.0542812 0.69345832 4294953728
8.2330198 -3.0857551 0.60069788 4294944512
8.3668404 -3.0707731 0.62306285 4294934016
8.5835857 -3.0128198 0.6472913 4294955776
8.6117477 -3.063314 0.64522994 4294967040
8.8659363 -3.0602713 0.6243577 4294956288
8.9612389 -3.0244381 0.63540411 4294955264
9.0330296 -3.0247889 0.61738932 4294967040
9.5045853 -3.0035622 0.61270714 4294967040
9.7557793 -3.0374196 0.63678384 4294967040
9.8436699 -3.0294745 0.64687192 4294967040
9.9088688 -3.00807 0.67543268 4294967040
10.043697 -3.0398397 0.67163014 4294967040
10.162789 -3.0323048 0.65690684 4294966528
10.267289 -3.0128345 0.67079186 4294963712
10.562202 -3.0549419 0.68376207 4294967040
11.798183 -3.0373535 0.68567532 4294946048
16.942778 -3.0108931 0.68801188 4294959616
23.840075 -3.0706606 0.6233362 4294944000
24.297884 -3.0758021 0.68889648 4294944512
28.298317 -3.0072017 0.65862167 4294946304
28.306797 -3.015152 0.63296735 4294946048
28.471703 -3.0323343 0.63261175 4294937600
28.501858 -3.0422881 0.62143081 4294933248
2.7790506 -2.9234886 0.62308121 4294967040
2.9308887 -2.9540067 0.63608062 4294966784
3.0465384 -2.94524 0.6515311 4294956288
3.145504 -2.9142876 0.65169579 4294948096
3.2888231 -2.933445 0.63851464 4294961664
3.3365188 -2.9269736 0.61444855 4294962176
3.4269366 -2.9931123 0.65246296 4294967040
3.5397847 -2.9241261 0.63469982 4294967040
3.6348629 -2.9888706 0.63356709 4294966016
3.7541456 -2.9346108 0.6419661 4294967040
3.95684 -2.9777174 0.63724679 4294944000
4.1864271 -2.9804411 0.67336178 4294960640
4.2267647 -2.9736311 0.67180705 4294965760
4.3694162 -2.9650347 0.67560518 4294967040
4.4331408 -2.9651337 0.65033758 4294967040
7.1628571 -2.967663 0.64930117 4294967040
7.7610559 -2.9815164 0.65580618 4294965504
8.1309891 -2.9933925 0.66234463 4294960384
8.4595585 -2.9470959 0.63570875 4294955008
8.5514431 -2.9387374 0.63292241 4294967040
9.4402866 -2.9534144 0.65823644 4294967040
9.7555475 -2.9817286 0.65146637 4294967040
9.8230181 -2.9888778 0.6393891 4294967040
9.9107103 -2.9974592 0.68249142 4294967040
10.029875 -2.9161108 0.66585702 4294952704
10.204844 -2.9632483 0.67940527 4294963200
10.317266 -2.9588904 0.69364619 4294961920
10.444748 -2.9529991 0.65423441 4294961152
11.011396 -2.9450729 0.67365825 4294930688
11.676957 -2.9190037 0.66363138 4294944768
23.840185 -2.935699 0.65815461 4294948608
24.308556 -2.96628 0.63644052 4294959360
28.470427 -2.9168444 0.63452131 4294941184
28.510912 -2.9526024 0.62561613 4294945536
2.6482563 -2.8308001 0.63242924 4294967040
2.9681225 -2.8559904 0.63015509 4294967040
3.0513897 -2.8702722 0.62825316 4294967040
3.3116481 -2.8813643 0.61989337 4294954240
3.4660358 -2.8751922 0.63216966 4294952704
3.5260396 -2.8528578 0.62190425 4294962688
4.1672697 -2.8704455 0.67897767 4294961408
4.2266264 -2.8709922 0.68447328 4294967040
4.3551998 -2.8428297 0.63921309 4294963968
7.1751599 -2.8713839 0.64558065 4294967040
7.2834907 -2.8382447 0.68069625 4294955008
7.5222592 -2.8079598 0.63948852 4294967040
7.6648436 -2.8649435 0.65864861 4294967040
7.7040224 -2.8320754 0.64936334 4294967040
8.2122726 -2.8273954 0.62971407 4294967040
9.8101254 -2.8803592 0.62355775 4294967040
10.354168 -2.8318419 0.67232502 4294951680
10.406136 -2.8584042 0.62307614 4294957312
10.80659 -2.8031478 0.676292 4294953984
12.026037 -2.8801413 0.6707285 4294952960
23.875975 -2.87784 0.66036737 4294947072
28.48419 -2.8086536 0.62680358 4294943488
28.526871 -2.8494642 0.62597358 4294940160
2.5776863 -2.7132316 0.62990332 4294967040
2.6214356 -2.7649777 0.64891303 4294963712
2.9310455 -2.7363272 0.6097092 4294967040
3.056561 -2.7200537 0.6586417 4294967040
3.1387601 -2.7555733 0.61502218 4294956288
3.3147931 -2.7991889 0.60872835 4294956288
3.8644743 -2.7635164 0.68809223 4294966784
3.9448164 -2.7378199 0.63778949 4294950400
4.1795325 -2.7781534 0.60543501 4294966016
4.2563915 -2.7204969 0.62340474 4294967040
4.3842506 -2.7070208 0.63774288 4294967040
4.41536 -2.7049849 0.63162929 4294967040
6.9957743 -2.7586622 0.6411007 4294958336
7.1788888 -2.7352252 0.63333321 4294967040
7.2422791 -2.7381144 0.62514889 4294967040
7.5431013 -2.7570486 0.65442961 4294961920
7.6521912 -2.7608609 0.66155398 4294967040
7.7029247 -2.7789073 0.65656054 4294967040
9.8469162 -2.7279673 0.65436029 4294967040
10.424992 -2.716608 0.68337983 4294962944
10.504592 -2.7091262 0.64493626 4294967040
23.881813 -2.7602105 0.63014984 4294950400
28.534281 -2.7394576 0.62632787 4294940160
2.5323119 -2.6479197 0.67615026 4294967040
2.882349 -2.6047595 0.60585088 4294967040
2.9219341 -2.6114526 0.64996725 4294966272
3.2574809 -2.6041803 0.61020201 4294964736
3.7670553 -2.6442902 0.61582464 4294953472
3.8530459 -2.6595833 0.63184917 4294945280
4.173893 -2.6945686 0.61395454 4294967040
4.2699409 -2.6990843 0.62514466 4294967040
4.3350449 -2.6921937 0.63490438 4294967040
4.4096146 -2.6919308 0.6269713 4294967040
9.8757801 -2.6256375 0.62734932 4294967040
9.9491549 -2.6745749 0.66445106 4294967040
10.023741 -2.6010783 0.65214819 4294967040
10.224154 -2.6175356 0.68131071 4294962432
10.345612 -2.6032708 0.61545527 4294967040
10.465355 -2.6453636 0.64210492 4294967040
10.513512 -2.649034 0.62124652 4294967040
23.894989 -2.6674778 0.62602746 4294953728
23.901091 -2.6592965 0.62299621 4294952448
28.448044 -2.6522896 0.61885935 4294930432
28.550177 -2.6413333 0.61840802 4294944768
2.55621 -2.5664692 0.66463286 4294967040
2.9149382 -2.5642028 0.68675405 4294967040
3.0201287 -2.5464377 0.61125708 4294963200
4.0354338 -2.5521102 0.69872999 4294967040
7.3266954 -2.5539975 0.65528125 4294967040
9.8940678 -2.540014 0.60530096 4294967040
9.9755173 -2.5251517 0.6087867 4294967040
10.02665 -2.5285161 0.61631048 4294967040
10.163401 -2.5500274 0.62655199 4294967040
10.272789 -2.5826683 0.64537561 4294967040
10.311141 -2.5920548 0.62078404 4294967040
14.37815 -2.5050309 0.62151057 4294967040
23.883141 -2.5630155 0.63562977 4294953984
23.910448 -2.5766811 0.63434935 4294954240
28.425896 -2.5683551 0.61782593 4294967040
28.553137 -2.5905747 0.6162113 4294937088
-0.84099483 -2.4587395 0.69210291 4294940160
-0.78098381 -2.4090848 0.67681742 4294934784
4.6918569 -2.4868119 0.67649215 4294966784
14.487364 -2.4491441 0.61629272 4294967040
14.530437 -2.4592257 0.61594796 4294967040
14.651381 -2.4215686 0.68871397 4294965760
23.895103 -2.4677739 0.62651134 4294950912
23.925884 -2.4606233 0.63554347 4294956800
28.476553 -2.4783502 0.69333196 4294967040
28.585947 -2.423435 0.62298328 4294966784
-0.76033205 -2.3566828 0.66377282 4294948096
14.56428 -2.3453174 0.62597126 4294967040
14.62783 -2.3812551 0.66602105 4294967040
23.940653 -2.3757041 0.63725233 4294960896
27.135845 -2.3044231 0.6745882 4287458560
27.33836 -2.3074899 0.66076332 4291736064
27.577084 -2.3072176 0.65264088 4294960384
27.60194 -2.3408067 0.60285151 4294966272
28.447203 -2.369751 0.62674034 4294967040
28.553804 -2.3881488 0.64670265 4294967040
-0.70948446 -2.2578688 0.64167953 4294931968
-0.69074041 -2.2144337 0.61181319 4294942720
9.7332888 -2.2026181 0.64878404 4294967040
10.675618 -2.2080646 0.68382984 4294967040
14.555138 -2.2960901 0.69097251 4294967040
23.950619 -2.267236 0.64385176 4294954496
26.85821 -2.2519007 0.63927072 4294967040
26.966974 -2.2598512 0.64717728 4294967040
27.041409 -2.2784126 0.6531924 4294967040
27.152176 -2.2788699 0.61842489 4294967040
27.226255 -2.2994721 0.66691804 4288709376
27.437973 -2.264617 0.62601435 4294967040
27.564465 -2.2867126 0.66671252 4294967040
27.618809 -2.2386556 0.64467335 4294967040
28.490654 -2.2922454 0.68562353 4294967040
28.514305 -2.2154741 0.65359819 4294967040
9.7622986 -2.1302843 0.66598976 4294967040
9.826745 -2.1082699 0.66312635 4294967040
10.057362 -2.1008482 0.60293764 4294967040
10.135195 -2.1058114 0.62373888 4294967040
10.284785 -2.1143811 0.60092258 4294967040
10.547873 -2.1627715 0.63847637 4294967040
10.655119 -2.1705997 0.64799941 4294967040
10.715231 -2.180614 0.66079944 4294967040
10.83143 -2.162931 0.64498067 4294963456
11.749222 -2.1314745 0.64912617 4294967040
11.986056 -2.1165524 0.64721394 4294967040
23.974419 -2.1595831 0.625139 4294951680
24.369709 -2.1182346 0.6485033 4294964224
24.412771 -2.1521013 0.64758259 4294967040
26.146809 -2.1349521 0.6411764 4294949632
26.290302 -2.1425815 0.62500668 4294959616
26.348562 -2.1788397 0.64837939 4294959360
26.414406 -2.1348643 0.62991703 4294966784
26.769018 -2.1172509 0.61581767 4294952960
26.81789 -2.1906331 0.63417274 4294967040
27.637596 -2.1963525 0.62958604 4294963200
28.493435 -2.1234014 0.64737248 4294956032
28.511229 -2.164736 0.6253252 4294967040
9.7618179 -2.0617108 0.66412747 4294967040
9.8539524 -2.0131397 0.65726763 4294967040
9.9842873 -2.0254605 0.67483234 4294967040
10.083762 -2.0739391 0.62969589 4294967040
10.123191 -2.0699716 0.64382809 4294967040
10.241381 -2.0289214 0.66432214 4294967040
10.359051 -2.0315065 0.68144059 4294967040
10.46666 -2.0257788 0.64222193 4294967040
10.566633 -2.0484948 0.65633458 4294967040
10.618262 -2.0672808 0.67270565 4294967040
10.986277 -2.0214248 0.62489021 4294960384
11.963839 -2.0564542 0.6483379 4294967040
12.010138 -2.0124626 0.63248873 4294967040
23.951056 -2.0290139 0.63143569 4294963712
24.027166 -2.032095 0.61733603 4294962688
24.13195 -2.0373187 0.66348004 4294947840
24.258789 -2.060102 0.64051622 4294942976
24.389313 -2.0597355 0.6364252 4294952704
24.435186 -2.0958295 0.63798833 4294967040
24.744022 -2.0119605 0.66087556 4294962944
24.849571 -2.0163012 0.65237737 4294967040
24.929565 -2.01405 0.67650747 4294967040
25.048674 -2.0260246 0.64326739 4294967040
25.121967 -2.0209584 0.63330638 4294967040
26.423929 -2.0985003 0.62881684 4294953728
26.51926 -2.0571055 0.61750364 4294967040
28.457947 -2.0481601 0.65062416 4294967040
28.51103 -2.0735762 0.60743248 4294967040
-1.7107652 -1.9210019 0.64956558 4294939904
-1.6529989 -1.9144299 0.64588428 4294945792
-1.5681987 -1.9228911 0.61929804 4294944000
9.8299198 -1.9913902 0.62612075 4294967040
9.9670506 -1.9278703 0.68122447 4294967040
10.070646 -1.9339726 0.62288356 4294967040
10.150374 -1.9340687 0.61134267 4294967040
10.216067 -1.9802392 0.63698268 4294967040
10.448925 -1.9737562 0.64222109 4294967040
10.511393 -1.9828753 0.62172353 4294967040
11.96986 -1.9938661 0.67941707 4294967040
12.008139 -1.9969587 0.67895043 4294967040
23.976295 -1.9793503 0.66876757 4294960896
24.021927 -1.9781374 0.62036103 4294953472
24.382816 -1.9606218 0.64043772 4294959616
24.448994 -1.9719675 0.62883258 4294965504
24.541786 -1.986552 0.64481509 4294959872
24.769119 -1.9830027 0.62574255 4294958592
24.825241 -1.9907451 0.64609396 4294967040
26.497402 -1.9567617 0.63397086 4294967040
26.535309 -1.9672819 0.62032002 4294967040
26.780243 -1.9971896 0.61255085 4294963712
28.430441 -1.9465672 0.63970298 4294967040
28.714855 -1.9327631 0.69409621 4294967040
4.5771313 -1.8027968 0.66694665 4294967040
9.9885826 -1.8828998 0.64053005 4294967040
10.023314 -1.8879609 0.60832119 4294967040
10.485144 -1.8850365 0.68859917 4294967040
11.994725 -1.8719817 0.63415623 4294965504
15.874834 -1.8124485 0.68746656 4294967040
24.346836 -1.8813448 0.65901095 4294937344
24.428217 -1.8764904 0.64725125 4294947328
25.575651 -1.8668005 0.62659264 4294967040
25.63312 -1.8473754 0.67547596 4294967040
26.513721 -1.8492794 0.66481775 4294967040
26.609886 -1.8563915 0.69663733 4294967040
28.340931 -1.8231584 0.68505847 4294967040
28.410316 -1.8577046 0.65239406 4294967040
28.746536 -1.8192225 0.67527872 4294967040
3.975194 -1.7451206 0.62046409 4294967040
4.0518484 -1.7368693 0.6234535 4294967040
4.2440681 -1.7059798 0.62989455 4294967040
4.5647268 -1.7609119 0.6218881 4294967040
4.6303287 -1.7542664 0.63811713 4294967040
10.430153 -1.7586573 0.61332214 4294967040
14.419606 -1.7193714 0.61743897 4294931968
14.545786 -1.7397153 0.6144675 4294967040
15.853333 -1.7836905 0.64265478 4294967040
15.933388 -1.78501 0.6159305 4294967040
24.529049 -1.7142375 0.66541946 4294967040
25.156958 -1.703948 0.65480363 4294957568
25.262148 -1.7111087 0.66432136 4294958592
25.364208 -1.7235222 0.66124189 4294967040
25.478254 -1.7726023 0.64843202 4294967040
25.541786 -1.7854366 0.65227795 4294967040
25.607559 -1.7687635 0.65008307 4294967040
25.700205 -1.7140416 0.69946325 4294967040
26.498098 -1.7361976 0.66331476 4294966528
26.531546 -1.7360021 0.66612446 4294967040
26.614676 -1.73048 0.69190961 4294963712
26.878345 -1.7319889 0.64607239 4292712448
28.393387 -1.7882388 0.62542754 4294967040
28.400574 -1.7885244 0.6217047 4294966016
28.775126 -1.7103072 0.64129961 4294967040
3.0972304 -1.6114836 0.61893135 4294967040
3.1020892 -1.6150548 0.61094749 4294967040
3.3508644 -1.6835165 0.63847423 4294967040
3.6415198 -1.6741633 0.61424756 4294967040
4.2624435 -1.6834543 0.63989031 4294967040
14.353906 -1.6835873 0.61867738 4294927872
14.460331 -1.6573403 0.66479701 4294941952
14.564339 -1.6396229 0.64686692 4294967040
14.619104 -1.6357191 0.65479022 4294967040
15.61116 -1.6656027 0.69896996 4294957056
15.84857 -1.6717079 0.64482546 4294947584
24.383133 -1.6981591 0.69328898 4294967040
24.453476 -1.6620977 0.66787446 4294967040
24.563568 -1.6650133 0.66390383 4294967040
24.659359 -1.672987 0.67037588 4294967040
24.761589 -1.6622226 0.65364742 4294967040
24.945335 -1.6846166 0.66771299 4294958848
25.027206 -1.6857779 0.65278196 4294960384
25.230511 -1.6671834 0.61562705 4294959616
25.344725 -1.6908882 0.60000283 4294967040
25.48592 -1.6054707 0.65449464 4294967040
25.565899 -1.6402525 0.63861138 4294967040
25.742256 -1.6109825 0.69091254 4294967040
25.83429 -1.6448021 0.68111217 4294961408
25.960285 -1.6140183 0.6343168 4294967040
26.012077 -1.6210966 0.6512593 4294967040
26.555115 -1.6724689 0.65479434 4294967040
26.623745 -1.6745532 0.60380846 4294967040
26.72534 -1.6743932 0.62979174 4294964992
28.336847 -1.6540389 0.64884722 4294967040
28.419308 -1.6486536 0.65837574 4294967040
28.787041 -1.6310701 0.61727774 4294967040
3.1635051 -1.5847654 0.61052793 4294967040
25.126657 -1.583047 0.68763685 4294958848
25.482176 -1.578228 0.66184157 4294967040
25.508606 -1.5807049 0.6750567 4294967040
25.661934 -1.5831131 0.63521647 4294967040
25.745985 -1.5785391 0.68266785 4294967040
25.947475 -1.5970576 0.63611341 4294963456
28.101486 -1.5752509 0.69883955 4294953472
28.391111 -1.5676703 0.65810132 4294967040
28.463263 -1.5431235 0.68732572 4294967040
28.531082 -1.5601814 0.66431564 4294967040
28.796879 -1.5852451 0.61116683 4294966272
28.806242 -1.5406225 0.62999094 4294967040
12.259085 -1.4631339 0.63673848 4294967040
28.382561 -1.4433911 0.661677 4294967040
28.468819 -1.4560864 0.69036984 4294967040
28.509834 -1.4030149 0.68783373 4294967040
28.799294 -1.4701846 0.64775813 4294105344
28.806362 -1.4919778 0.62721723 4294967040
12.271759 -1.3653711 0.6180262 4294967040
12.30678 -1.3673463 0.61667341 4294967040
25.026119 -1.380736 0.64319569 4294949376
28.388384 -1.3742702 0.65403664 4294967040
28.437462 -1.3560337 0.65413594 4294967040
28.521881 -1.3576567 0.65331757 4294967040
28.843891 -1.3602908 0.67138815 4294967040
28.907267 -1.3668933 0.67662293 4294967040
45.126644 -1.3128942 0.68839431 4290871040
12.257675 -1.2481519 0.63877678 4294967040
16.691542 -1.275404 0.68776524 4294967040
16.766243 -1.2459097 0.67986739 4294967040
16.868507 -1.2545474 0.60499811 4294967040
26.270201 -1.2015294 0.63374752 4294966016
26.354836 -1.2129468 0.64608216 4294964224
26.469208 -1.2435763 0.64447021 4294960384
26.557007 -1.2405863 0.63236523 4294957056
26.647144 -1.2813754 0.64969265 4294947328
28.494617 -1.2499465 0.64909708 4294967040
28.510384 -1.2619804 0.64838278 4294967040
28.845955 -1.2559111 0.66755855 4294967040
45.072132 -1.2749711 0.68583131 4290544640
45.119709 -1.2967374 0.68226278 4290544384
14.668726 -1.1072886 0.6170339 4294967040
25.555531 -1.1690419 0.65963137 4294967040
25.66111 -1.1349254 0.65580839 4294953728
25.850946 -1.1505973 0.64197445 4294965760
25.98354 -1.1690327 0.62540597 4294960640
26.04957 -1.1739786 0.62351823 4294962688
26.141376 -1.1848795 0.66607487 4294963712
26.225597 -1.184088 0.65288013 4294962688
26.380558 -1.156893 0.65820771 4294967040
26.411221 -1.1262567 0.64985466 4294960896
26.611324 -1.149411 0.65525442 4294963456
28.869911 -1.1571834 0.67344248 4294967040
28.925797 -1.1645811 0.68197745 4294967040
42.449036 -1.1103952 0.66299665 4282916608
42.627254 -1.1273739 0.68265057 4283640320
42.717148 -1.129833 0.64515102 4283707136
42.867661 -1.1394835 0.65351057 4283773184
42.905899 -1.1329339 0.67074931 4283772416
45.060783 -1.1645522 0.68503892 4291460864
14.589236 -1.0738987 0.68054587 4294962944
14.644129 -1.0893705 0.65747696 4294967040
14.71018 -1.0305132 0.62523699 4294967040
25.759491 -1.0351268 0.67284989 4294967040
25.862833 -1.0693685 0.63417441 4294965760
25.910698 -1.0925213 0.62986809 4294960640
28.868389 -1.0547354 0.67838919 4294967040
40.736885 -1.0115521 0.68441713 4284425728
40.84124 -1.0171279 0.68411183 4284427520
40.903332 -1.0226297 0.68413174 4284427008
41.014252 -1.0140028 0.68040878 4283967232
41.134693 -1.000941 0.6759147 4284229376
41.264076 -1.0296974 0.67686456 4284557824
41.373383 -1.0616429 0.6913141 4284360704
41.44368 -1.0758028 0.69499385 4284294912
41.522629 -1.0374315 0.68253374 4284294656
41.762917 -1.0369313 0.68602324 4284032256
41.922714 -1.0832433 0.63539869 4283966976
42.624111 -1.0878408 0.69958198 4283442688
44.623932 -1.0175046 0.67292571 4293313792
44.730854 -1.0242423 0.67622328 4292916224
45.137596 -1.0397842 0.66517812 4294946816
14.696106 -0.94591355 0.65294737 4294967040
14.720107 -0.96969908 0.62961757 4294967040
28.873798 -0.95082498 0.67635787 4294967040
39.67083 -0.90837467 0.66382557 4285218560
39.811874 -0.90778619 0.66531318 4285084672
39.919304 -0.90100014 0.62329376 4284625152
40.076141 -0.91701937 0.63078058 4284626432
40.183197 -0.9561227 0.67031187 4285219840
40.243591 -0.92520034 0.62441003 4285218048
40.346008 -0.92036372 0.65811503 4285085184
40.436695 -0.93150473 0.64872724 4284756480
40.537796 -0.98149407 0.68026781 4284491776
40.651913 -0.96011984 0.66065562 4284427008
40.753441 -0.9709599 0.65389776 4284558080
40.876686 -0.98737442 0.64460218 4285216512
40.95079 -0.97124755 0.66065681 4284493056
41.027721 -0.97822833 0.66488224 4284427008
41.144394 -0.99203312 0.66902018 4284295168
41.335709 -0.99911094 0.67859292 4284294912
44.430969 -0.91320765 0.68233281 4294038528
44.517204 -0.91924262 0.69492573 4293841664
44.829945 -0.99821943 0.68295169 4292319232
44.970448 -0.9761318 0.67871225 4291460352
28.872555 -0.87145573 0.68145072 4294967040
38.577431 -0.80660081 0.6474489 4285415424
38.649261 -0.81681186 0.64706653 4285350400
38.759212 -0.80886126 0.62398338 4285350400
38.874638 -0.80318588 0.63946086 4285221120
38.936539 -0.81240362 0.61688608 4285421824
39.03553 -0.82528502 0.6109494 4285422848
39.153481 -0.82798439 0.61477053 4285553920
39.259792 -0.82940364 0.64465421 4285418240
39.388481 -0.85839415 0.6511389 4285285888
39.458908 -0.85373843 0.64909363 4285153536
39.540199 -0.85976446 0.61979473 4285415680
39.665947 -0.87445766 0.63040102 4285219584
39.742844 -0.87807715 0.63201714 4285348096
39.832893 -0.87226963 0.65405279 4285084928
39.977234 -0.88879102 0.63982725 4284427776
40.007401 -0.88578486 0.65663213 4284493312
44.351521 -0.89366186 0.682845 4294236928
44.494877 -0.87310565 0.67534703 4294236416
44.599216 -0.82065183 0.64442343 4294961664
44.623848 -0.86951458 0.66075158 4291798784
11.795626 -0.75876629 0.69354904 4294967040
11.83181 -0.77283049 0.67391348 4294967040
19.424225 -0.7291249 0.61273348 4278846976
28.879578 -0.7692821 0.68149722 4294967040
28.907431 -0.76249826 0.65366226 4294967040
37.485764 -0.70498896 0.62644625 4285548288
37.670788 -0.72186482 0.6339047 4285744640
37.768871 -0.71855909 0.61794376 4285813248
37.844696 -0.71583974 0.60766363 4285681920
37.943371 -0.72122931 0.62009156 4285549824
38.055275 -0.73340404 0.62621474 4285484032
38.171082 -0.74831808 0.63236749 4285747712
38.244423 -0.74957693 0.61946982 4285681664
38.35038 -0.75784862 0.61565679 4285616640
38.458221 -0.76888698 0.60901046 4285550336
38.569969 -0.7866627 0.6364187 4285416960
38.681595 -0.78182817 0.63363111 4285415680
38.748913 -0.78220117 0.63705099 4285283840
38.823601 -0.79152489 0.63257289 4285285632
38.952595 -0.7994774 0.63923103 4285357056
44.286839 -0.76804763 0.67999655 4294102784
44.59362 -0.74200654 0.68167245 4294424064
44.614441 -0.72457826 0.67294031 4294300160
44.938732 -0.76683539 0.68176866 4293901056
11.852821 -0.65457916 0.61407453 4294967040
19.159348 -0.64066052 0.62681937 4279373056
19.329954 -0.608769 0.61586982 4279970816
19.644205 -0.66393858 0.60246074 4279575296
28.880482 -0.63058168 0.6730839 4294967040
36.438927 -0.60445088 0.60701716 4285546240
36.544468 -0.61606354 0.61234307 4285612800
36.647491 -0.60965919 0.60485828 4285748992
36.753761 -0.62847728 0.61080563 4285682944
36.831787 -0.62437117 0.60467911 4285483264
36.964607 -0.64009839 0.61335874 4285417472
37.046028 -0.64668143 0.61217093 4285416192
37.15321 -0.65944952 0.61500227 4285418496
37.225052 -0.66147447 0.61339694 4285549824
37.351791 -0.66804379 0.60597277 4285419520
37.443459 -0.68030936 0.61309248 4285615616
37.548737 -0.68204755 0.61344898 4285612544
37.629089 -0.6919775 0.61558378 4285742848
37.778591 -0.69887024 0.6216684 4285682176
44.276398 -0.64987618 0.67756355 4294167552
44.355804 -0.62212193 0.68459231 4294166272
44.411152 -0.68235677 0.67501867 4294100736
45.149048 -0.61583436 0.65476614 4294955776
11.848196 -0.5670042 0.60291803 4294967040
19.103653 -0.58150548 0.62445855 4281088768
19.269974 -0.56766599 0.62164938 4279969024
19.350693 -0.51435709 0.61453938 4279109376
19.60198 -0.50084931 0.60462111 4278716672
28.886295 -0.55269974 0.67135847 4294967040
35.687771 -0.53404617 0.60011971 4286466048
35.776241 -0.54289448 0.60157102 4286138112
35.872261 -0.55483723 0.60206008 4285678336
36.030098 -0.56833524 0.60541427 4285347328
36.154831 -0.57462001 0.60323322 4285742336
36.22773 -0.58619589 0.60526872 4285611264
36.328938 -0.59523427 0.60849428 4285612032
36.451263 -0.59247243 0.60261965 4285611520
45.14854 -0.58386505 0.68436199 4294963200
18.463257 -0.43136719 0.68606615 4281412096
18.58387 -0.44605428 0.67421782 4281743872
18.667339 -0.43259716 0.66636622 4282007552
18.751438 -0.48133788 0.66588342 4281941760
18.856171 -0.4285354 0.65959883 4281615872
19.041765 -0.44520631 0.63376093 4281483008
19.147547 -0.45228454 0.62215996 4279504896
19.217176 -0.48444942 0.62379903 4280563968
19.335611 -0.4364439 0.61585933 4279905024
19.444885 -0.42219514 0.60960239 4279774720
19.556326 -0.45672047 0.60636431 4279709696
19.668867 -0.46278021 0.6002655 4278585344
28.88855 -0.44451118 0.67273498 4294967040
34.269917 -0.41573033 0.69148165 4287187968
44.672585 -0.41438776 0.68590844 4294958592
45.185123 -0.4789795 0.63149655 4294967040
18.380772 -0.36945158 0.69104356 4281475072
18.536425 -0.36732411 0.6782456 4281281536
18.641785 -0.34506547 0.66727901 4281283584
18.744997 -0.34582353 0.6613065 4281415680
18.868332 -0.3164385 0.66283864 4281614592
18.952969 -0.37051803 0.65081346 4281153280
19.077129 -0.34397274 0.63181186 4281353984
19.155972 -0.33178481 0.62279832 4279507456
19.248838 -0.37756798 0.62120533 4279839488
19.354614 -0.3648802 0.61244953 4280039168
28.885681 -0.36854213 0.6689586 4294967040
28.903343 -0.34789056 0.67385572 4294967040
33.160324 -0.30993387 0.68085098 4287850496
33.253609 -0.31783679 0.67223203 4287586816
33.328384 -0.32294416 0.68912852 4287585792
33.474655 -0.33596361 0.69496131 4288045824
33.530403 -0.34164575 0.67892814 4289426944
33.62188 -0.35361621 0.68207717 4288570112
45.20322 -0.36193746 0.62008679 4294967040
-14.918464 -0.27950186 0.69140714 4280221440
-14.888468 -0.24752322 0.69441676 4280221440
18.368425 -0.27474082 0.68979257 4281475584
18.614567 -0.28330562 0.66702163 4280951808
18.749861 -0.26174083 0.66154194 4281415424
18.976334 -0.29786688 0.64924115 4281154304
19.063337 -0.29074278 0.63176614 4281090304
19.143669 -0.28022248 0.62389958 4280498432
19.222145 -0.29676962 0.61698699 4280433408
28.911572 -0.25960299 0.67198819 4294967040
31.862831 -0.20827278 0.60321486 4294943488
31.952948 -0.21337552 0.61107862 4294941696
32.031456 -0.21961811 0.61846101 4294938112
32.165794 -0.23066753 0.621346 4294283776
32.242916 -0.24069704 0.61856055 4294546944
32.330017 -0.2492234 0.62268347 4293565440
32.470917 -0.25208527 0.64710796 4291532288
32.574715 -0.26740247 0.63570017 4290944256
32.654694 -0.2719242 0.64218378 4290021376
32.729462 -0.28034937 0.64368844 4289362944
32.839653 -0.28775591 0.65025818 4288576768
32.944977 -0.29122198 0.67097068 4289099264
33.037445 -0.29717207 0.67753625 4288507648
33.12925 -0.29807979 0.68528557 4287653632
33.203491 -0.2928234 0.677719 4287982336
45.164452 -0.20644595 0.67844892 4294967040
45.200542 -0.22429897 0.62243265 4294967040
-14.863694 -0.1349774 0.69693232 4280221440
28.931711 -0.14721003 0.67330194 4294967040
31.141602 -0.11785792 0.60415268 4294546944
31.24892 -0.12728359 0.60754895 4293561088
31.329449 -0.1335983 0.60899967 4292442624
31.455103 -0.15667184 0.60808647 4293165824
31.55571 -0.17340335 0.6033895 4293955584
31.653095 -0.17344201 0.61270714 4293624064
31.724678 -0.19078177 0.607629 4294944768
31.842484 -0.1890651 0.62516868 4294942720
31.936386 -0.18918836 0.63483262 4294943232
32.036491 -0.19738004 0.63900191 4294939136
45.174652 -0.1599226 0.68880463 4294964992
45.679878 -0.12236131 0.66505003 4294967040
-14.851729 -0.06210215 0.69320726 4280221440
18.85339 -0.092244036 0.66039795 4279898368
18.984011 -0.027397038 0.63228405 4280160768
28.903299 -0.077524915 0.66797495 4294967040
29.055597 -0.085696883 0.60527301 4294967040
29.734161 -0.019547831 0.66679448 4288912384
29.844055 -0.033423848 0.67284703 4288910592
29.948277 -0.038837649 0.68096679 4289234176
30.048304 -0.050360814 0.69278145 4289562880
30.112921 -0.029841784 0.69977051 4288310528
45.6558 -0.086103894 0.69299769 4294967040
45.708763 -0.056289203 0.6321193 4294967040
-14.846451 0.016774114 0.69660395 4280221440
-12.820668 0.082986809 0.67838895 4278321152
18.750208 0.097566471 0.65593398 4280882432
18.852139 0.04605538 0.65886921 4280621312
28.920046 0.016592667 0.6662544 4294967040
45.667313 0.094130702 0.67088616 4294967040
45.73069 0.031620517 0.66175258 4294967040
18.237444 0.15389825 0.6873275 4281340672
18.470181 0.13727073 0.67281675 4281211136
18.584793 0.13496472 0.66276866 4281080064
18.671951 0.14286776 0.66041267 4281080064
28.931627 0.14888534 0.65592527 4294967040
45.584045 0.19902113 0.69515061 4294967040
45.672672 0.13755044 0.67585421 4294967040
45.708008 0.14397728 0.62918949 4294967040
-12.811405 0.213388 0.67877495 4278321152
44.869347 0.289446 0.68452585 4294967040
44.909203 0.26862851 0.62929678 4294967040
45.012592 0.2214919 0.60292804 4294967040
45.342026 0.24281885 0.64002585 4294964992
45.573677 0.23534037 0.68574357 4294966784
45.678528 0.24591234 0.6768384 4294967040
-14.777643 0.33168334 0.69737267 4280221440
44.860825 0.36707121 0.69002372 4294967040
44.968269 0.35496277 0.63095009 4294967040
45.115944 0.33744892 0.61390167 4294967040
45.456409 0.32651165 0.65035564 4294956800
45.564209 0.30456337 0.66582566 4294967040
45.654541 0.36023688 0.67456508 4294967040
45.70314 0.38691455 0.6979996 4294960128
-14.744343 0.44781062 0.69728452 4280221440
44.864693 0.46108842 0.68642163 4294967040
44.95998 0.43695605 0.63247585 4294967040
45.088604 0.49610946 0.65998966 4294967040
45.224693 0.42960191 0.66836417 4294963712
45.366993 0.4504565 0.67208147 4294963712
45.43589 0.44159526 0.6418606 4294963968
45.753578 0.49858269 0.65982646 4294961408
-14.726538 0.53366435 0.69546413 4280221440
44.88179 0.53512812 0.68854302 4294967040
44.966133 0.53728354 0.66416276 4294967040
45.051113 0.51234031 0.61667967 4294967040
45.658463 0.5526129 0.6591922 4294955776
45.718506 0.51144111 0.69200647 4294955520
-14.735128 0.63828051 0.69585449 4280221440
44.733776 0.68279636 0.61192757 4294960128
44.876915 0.64570999 0.68299258 4294967040
44.923012 0.69360167 0.68511641 4294967040
45.181183 0.67431349 0.69488966 4294965760
45.669777 0.61443746 0.63138455 4294957824
-14.87607 0.76244652 0.69676197 4280155904
-14.771981 0.70511907 0.69718409 4280155904
44.665382 0.74965239 0.69198751 4294957568
44.741013 0.74986804 0.65438521 4294955520
44.858582 0.77352321 0.65166897 4294967040
44.906979 0.71747762 0.68975675 4294967040
-14.868492 0.85066289 0.69890356 4280155904
8.1705847 0.89309323 0.6709851 4294967040
8.2747478 0.87598467 0.62416124 4294967040
8.3246832 0.87233198 0.60721517 4294967040
44.535294 0.85844326 0.67357397 4294966528
44.635658 0.86281556 0.65879762 4294959872
44.729126 0.85548246 0.65158653 4294957312
44.841564 0.83682239 0.63245535 4294967040
-14.875919 0.96183568 0.69805157 4280090368
8.1910477 0.90904689 0.68275309 4294967040
8.2077332 0.90662527 0.68679124 4294967040
8.3207264 0.94072753 0.60359251 4294967040
8.4111414 0.90932101 0.65622169 4294967040
39.588043 0.99276716 0.60189915 4294938624
44.521477 0.92965281 0.66993177 4294961408
44.627579 0.95703304 0.65610313 4294960896
44.888306 0.96017677 0.6921066 4294967040
44.915146 0.93601108 0.69148719 4294967040
8.2910862 1.0292546 0.60335481 4294967040
8.3103285 1.092394 0.60352039 4294967040
39.588043 1.0255212 0.61225104 4294942208
39.696823 1.0869147 0.61673766 4294935040
39.844925 1.0925522 0.63310832 4294953728
39.917007 1.0859644 0.63420874 4294946560
40.078896 1.0953488 0.61679494 4294962176
40.150269 1.0886841 0.61515933 4294967040
40.263008 1.0819424 0.61851835 4294967040
40.323387 1.0828617 0.61761808 4294967040
40.451851 1.0612968 0.6170063 4294967040
40.52536 1.0588825 0.6222198 4294967040
40.639748 1.0437005 0.62204456 4294964480
44.557404 1.0897102 0.6877594 4294964480
44.656414 1.0803347 0.68756384 4294964480
44.761215 1.0776668 0.69186461 4294963712
44.821365 1.039185 0.69132543 4294967040
44.95224 1.040567 0.64706463 4294967040
-1.6809477 1.1786407 0.67484516 4294967040
8.3141661 1.1280239 0.60685349 4294967040
39.579292 1.1721399 0.62049526 4294967040
39.611359 1.1441281 0.60502779 4294963456
39.748581 1.131788 0.60787821 4294956288
39.814247 1.1206337 0.60794425 4294956544
39.956024 1.1134828 0.61047328 4294954752
40.046844 1.1059825 0.61640948 4294960128
40.129784 1.1086287 0.619066 4294967040
40.246902 1.1131569 0.6279583 4294967040
40.413143 1.1017761 0.63523072 4294967040
44.549011 1.1153138 0.67450011 4294961920
44.636627 1.1296614 0.68548375 4294962688
44.731037 1.1283658 0.64845848 4294953984
44.860703 1.1651566 0.67467636 4294964736
44.915092 1.1722828 0.68969262 4294967040
-1.670521 1.2907376 0.66388905 4281871616
8.3277245 1.2253032 0.65184867 4294967040
39.546555 1.2850471 0.61006033 4294967040
39.628311 1.2637836 0.61783278 4294963456
44.939777 1.2113698 0.68712562 4294966272
-1.6767491 1.3928339 0.6533283 4291086336
8.3330669 1.3590009 0.61800778 4294967040
39.357246 1.3252366 0.60763013 4294964480
39.555252 1.328503 0.6082871 4294967040
39.617306 1.3265661 0.61169589 4294966272
-1.6653692 1.4508972 0.6130656 4292007424
8.2885189 1.4511623 0.62992227 4294967040
8.3755016 1.4718453 0.64126623 4294967040
8.4118452 1.4868721 0.60650188 4294967040
-1.658872 1.5651749 0.62481415 4291612160
-1.5955211 1.5415058 0.64641148 4292007424
8.1935301 1.5215416 0.62690723 4294967040
8.2136364 1.5322716 0.63638365 4294967040
-1.6629226 1.6604393 0.62347984 4291611904
2.285193 1.78184 0.69988555 4294967040
2.3665035 1.7881975 0.69889671 4294967040
2.4554822 1.7892605 0.69247848 4294967040
2.5594563 1.7838752 0.68551427 4294967040
2.666719 1.7794288 0.68222713 4294967040
2.7343144 1.7766161 0.68515462 4294967040
2.8177571 1.7760634 0.68757367 4294967040
2.9519176 1.7747867 0.63488305 4294967040
31.567181 1.7937469 0.65202391 4294967040
31.685085 1.7908807 0.64538682 4294960640
0.75303888 1.8978654 0.69760072 4294967040
0.83161467 1.8931512 0.69495082 4294967040
0.95891494 1.8906357 0.6932835 4294967040
1.065516 1.8808024 0.69162661 4294967040
1.2261418 1.8770568 0.69912648 4294967040
1.3363198 1.8788188 0.69786829 4294967040
1.4496663 1.8745055 0.69325924 4294967040
1.6824411 1.8354665 0.65788257 4294967040
1.7350463 1.842376 0.6562081 4294967040
1.8410903 1.8386149 0.65164089 4294967040
2.0954752 1.8456583 0.69438833 4294967040
2.1642375 1.8390197 0.69092399 4294967040
2.238378 1.8432103 0.68952668 4294967040
2.3299623 1.8318483 0.68261003 4294967040
2.4641063 1.8202559 0.67451203 4294967040
2.5379062 1.835611 0.64802772 4294967040
2.6386142 1.8281167 0.6419934 4294967040
2.7606823 1.8070149 0.6593821 4294967040
2.8691998 1.8138086 0.65716767 4294967040
2.9572139 1.8421366 0.62001252 4294967040
3.0137901 1.8121133 0.6683979 4294967040
18.880199 1.8160496 0.692931 4285148928
18.98107 1.8488822 0.69083303 4284886528
19.130619 1.8958024 0.68756753 4284427008
29.209503 1.8937151 0.65000641 4294967040
30.231508 1.8983421 0.62181932 4287790080
30.344698 1.8903338 0.62777233 4294967040
30.420013 1.8860726 0.62836629 4294967040
30.735493 1.8992554 0.69072086 4294967040
30.884546 1.8855562 0.69023907 4294967040
30.952839 1.880811 0.69023734 4294967040
31.051521 1.8696692 0.69447279 4294967040
31.133373 1.8617182 0.69553351 4294967040
