# .PCD v0.7 - Point Cloud Data file format
VERSION 0.7
FIELDS x y z rgb
SIZE 4 4 4 4
TYPE F F F U
COUNT 1 1 1 1
WIDTH 1094
HEIGHT 1
VIEWPOINT 0 0 0 1 0 0 0
POINTS 1094
DATA ascii
8.9414406 -4.3497758 -0.38506341 4294955776
9.0202446 -4.3569069 -0.38512373 4294963712
9.1168261 -4.34939 -0.36415958 4294960128
9.2603302 -4.3347797 -0.36467981 4294937856
9.3343353 -4.3643198 -0.3685565 4294937344
9.5716543 -4.3690472 -0.3859387 4294931456
5.39081 -4.2617712 -0.36921489 4294932736
5.4512863 -4.2663574 -0.36652535 4294936832
6.9286957 -4.2803593 -0.37722701 4294964736
8.4891815 -4.2041545 -0.39079747 4294941696
8.5374107 -4.2444749 -0.36654419 4294940928
8.6704464 -4.241643 -0.36835778 4294934528
8.8812332 -4.245266 -0.34611261 4294951424
8.9669514 -4.236845 -0.36533767 4294960640
9.0705395 -4.2493987 -0.37909546 4294966016
9.1658287 -4.2425413 -0.37943104 4294967040
9.2483091 -4.2532549 -0.37722695 4294947328
9.4298801 -4.2683969 -0.38860703 4294944512
1.1049496 -4.1462479 -0.31234995 4294967040
5.3841286 -4.1549315 -0.34545887 4294936832
5.4533582 -4.1134262 -0.3511256 4294946816
8.4858999 -4.180788 -0.39125723 4294940672
8.5006905 -4.1938887 -0.38725972 4294943232
8.8783264 -4.1235886 -0.36452603 4294952960
8.9813957 -4.1573086 -0.37457171 4294962176
9.0400782 -4.1406574 -0.39227602 4294967040
9.1576958 -4.1485262 -0.38524655 4294967040
9.238966 -4.1537514 -0.39975905 4294955008
9.7563171 -4.1378508 -0.33382368 4294965760
5.3871412 -4.0503902 -0.36368939 4294949632
5.4502206 -4.0498934 -0.32445872 4294949888
6.5838118 -4.0670695 -0.39544207 4294955264
6.7814236 -4.0177593 -0.33208257 4294967040
6.8484516 -4.0325136 -0.33205014 4294967040
8.8746862 -4.0557594 -0.38281679 4294967040
8.947485 -4.0400648 -0.37050712 4294967040
9.0581856 -4.0619164 -0.38162032 4294960128
9.1126194 -4.0927677 -0.36720657 4294962688
9.7473774 -4.0107889 -0.32528037 4294967040
5.3875356 -3.9571414 -0.3588571 4294953984
5.47788 -3.9707308 -0.39623556 4294953216
6.5384731 -3.9731517 -0.38017964 4294955008
6.7448692 -3.961314 -0.33340949 4294967040
6.8171115 -3.9555538 -0.33793709 4294967040
8.7530298 -3.9523177 -0.37639326 4294960384
8.8683949 -3.9390106 -0.37913865 4294967040
8.9595642 -3.9697886 -0.3679958 4294967040
9.04105 -3.9760113 -0.36912793 4294958336
9.568697 -3.9270308 -0.3654272 4294953472
9.6288881 -3.9937482 -0.36034903 4294967040
9.7233152 -3.9251332 -0.36410853 4294967040
9.8225765 -3.9463162 -0.30813253 4294967040
5.3789248 -3.8236892 -0.3380456 4294953984
5.4165564 -3.8518739 -0.33857816 4294949376
6.4945593 -3.8384538 -0.37139976 4294953216
6.5295811 -3.8705325 -0.36981505 4294953728
6.6202106 -3.842576 -0.32056075 4294954752
6.7013903 -3.8299778 -0.34441534 4294955520
6.8256292 -3.8624747 -0.34047389 4294946048
8.5494909 -3.8359942 -0.39834231 4294937088
8.6492805 -3.8583369 -0.33343095 4294934784
8.8587761 -3.8483002 -0.37966779 4294967040
8.9641647 -3.8314831 -0.38086557 4294967040
9.0281124 -3.8031158 -0.35610896 4294964224
9.6516314 -3.8278022 -0.37572229 4294967040
9.708416 -3.8449829 -0.38364068 4294967040
5.3836856 -3.7565117 -0.36350524 4294949632
6.3570676 -3.7305641 -0.39728859 4294942464
6.4236045 -3.7339635 -0.38129121 4294949888
6.5300913 -3.7616649 -0.338745 4294950912
6.7932291 -3.7733884 -0.34036484 4294952960
6.9194918 -3.7588987 -0.33458152 4294954496
8.5669365 -3.7620599 -0.38733339 4294937088
8.747858 -3.7599378 -0.3790763 4294940416
8.8460236 -3.7620997 -0.3780973 4294963712
8.9659138 -3.7773099 -0.37126118 4294967040
9.0290194 -3.7864008 -0.38070709 4294966016
9.3783541 -3.7203226 -0.35769719 4294956288
9.4834614 -3.730942 -0.34793556 4294964480
9.5453768 -3.7779865 -0.348124 4294962176
9.7122908 -3.7188447 -0.33981901 4294967040
1.1907939 -3.6816452 -0.30388656 4294967040
5.372509 -3.6584468 -0.33208382 4294946560
6.3650613 -3.6199577 -0.38406 4294956800
6.4524422 -3.677829 -0.3604154 4294948864
6.5383458 -3.6325402 -0.33111411 4294951680
6.6721354 -3.6099274 -0.35414004 4294951168
6.8420773 -3.6288497 -0.3516182 4294955264
6.9804645 -3.6323421 -0.35182434 4294965248
7.4320388 -3.610908 -0.35663876 4294941440
8.5691242 -3.6574028 -0.38895398 4294931456
8.867979 -3.6561618 -0.35770345 4294962176
8.9550247 -3.6125567 -0.38531452 4294967040
9.028964 -3.6155894 -0.35802019 4294964480
9.265337 -3.6140912 -0.34254634 4294967040
9.3155899 -3.6121078 -0.38193965 4294967040
9.4243155 -3.6567426 -0.34329396 4294967040
9.5768604 -3.6544731 -0.3292858 4294964480
9.6778164 -3.6648862 -0.33421421 4294967040
9.7268028 -3.6400323 -0.39067388 4294967040
1.2458504 -3.5161989 -0.39035162 4294967040
5.3777733 -3.515274 -0.34264237 4294944512
5.4157343 -3.5539351 -0.33705807 4294937088
6.2777081 -3.5361223 -0.37382412 4294967040
6.3270016 -3.5431745 -0.37215841 4294966272
6.5159616 -3.5446086 -0.34780025 4294961152
6.6692071 -3.5418 -0.33920455 4294957312
6.7704749 -3.5216212 -0.3101384 4294967040
6.8423252 -3.5105863 -0.31212097 4294967040
6.916152 -3.5362492 -0.35623574 4294967040
7.062809 -3.5182929 -0.34593347 4294950144
7.1239967 -3.5389786 -0.36501414 4294944768
7.3781614 -3.5193014 -0.3285822 4294941184
8.6687126 -3.5591633 -0.37085524 4294935552
8.7480249 -3.5276556 -0.36629891 4294953472
8.8648872 -3.5773776 -0.36967355 4294962432
8.9484777 -3.5890298 -0.38844374 4294967040
9.0067282 -3.5745587 -0.38841465 4294967040
9.2861328 -3.5451405 -0.38726217 4294967040
9.3043814 -3.531635 -0.39417323 4294967040
9.4604254 -3.5334022 -0.32029033 4294967040
9.5726166 -3.5216994 -0.35603356 4294967040
9.6576881 -3.5322058 -0.364205 4294967040
9.7265682 -3.5448318 -0.34991175 4294967040
5.3801708 -3.4781051 -0.36654535 4294942720
6.2495279 -3.4264669 -0.37158868 4294967040
6.311182 -3.484796 -0.36980075 4294967040
6.5906782 -3.4730129 -0.37756777 4294958592
6.655067 -3.4015434 -0.37394115 4294952960
6.7130208 -3.4984388 -0.3869991 4294957824
6.8686771 -3.4477046 -0.32256263 4294967040
6.929656 -3.4687991 -0.34223339 4294961664
7.0716238 -3.43962 -0.37701306 4294947840
7.2831106 -3.4716291 -0.34082174 4294944512
7.3442698 -3.4396989 -0.34729064 4294942464
8.5844746 -3.4298363 -0.3906838 4294955520
8.6469002 -3.4384744 -0.36350095 4294960640
8.7632217 -3.4903176 -0.34090257 4294946816
8.8280525 -3.4676485 -0.38443199 4294949376
9.2044916 -3.4675901 -0.39752924 4294967040
9.3567219 -3.4611325 -0.38674134 4294967040
9.5833912 -3.425122 -0.33418834 4294967040
9.6792488 -3.4423728 -0.38298136 4294967040
9.7106571 -3.4896579 -0.35528496 4294967040
1.3016918 -3.3025396 -0.38081998 4294954240
6.4525142 -3.378566 -0.38001376 4294956288
6.5558248 -3.3390419 -0.35918117 4294955776
6.6775846 -3.3186171 -0.34541023 4294958080
6.7223511 -3.339711 -0.36115411 4294947072
6.8460097 -3.372576 -0.32896662 4294953216
7.1483231 -3.3256028 -0.33607692 4294938624
8.5555563 -3.3139858 -0.34829333 4294967040
8.6183157 -3.3477635 -0.35333627 4294967040
8.7631912 -3.3111262 -0.3506119 4294967040
8.8606148 -3.3123703 -0.36562449 4294967040
8.9304314 -3.3228412 -0.31825429 4294967040
9.1509056 -3.3232932 -0.32400191 4294967040
9.2289724 -3.3201139 -0.34904137 4294963712
9.3546581 -3.3531189 -0.37488732 4294967040
9.43262 -3.3196564 -0.33631325 4294953728
9.5568295 -3.3711164 -0.3284542 4294967040
1.3442365 -3.2433028 -0.38178852 4294967040
6.3810244 -3.2381711 -0.3250092 4294945024
6.4385366 -3.2277966 -0.32228398 4294966784
6.5408115 -3.2448523 -0.38435066 4294966784
6.6600647 -3.2760296 -0.35300988 4294965504
7.1557856 -3.2823272 -0.35923034 4294937856
8.3922844 -3.2080133 -0.36745486 4294942976
8.4268656 -3.2314911 -0.34769526 4294952960
8.5865078 -3.2776523 -0.36568052 4294967040
8.6403465 -3.2900574 -0.37045777 4294967040
8.8809757 -3.261085 -0.39259541 4294967040
8.9056778 -3.2702968 -0.34851253 4294967040
9.0963125 -3.2261486 -0.34505048 4294956032
9.15201 -3.2697978 -0.34057182 4294962432
9.2712212 -3.2231054 -0.36230743 4294967040
9.3115187 -3.23632 -0.37307957 4294967040
9.4443531 -3.2441943 -0.36417657 4294965248
9.5349121 -3.2121549 -0.318829 4294964992
9.682436 -3.2275786 -0.37658125 4294967040
9.7056446 -3.2266974 -0.33024496 4294967040
1.355937 -3.1563118 -0.37392867 4294967040
6.0707021 -3.1287239 -0.3479017 4294936576
6.2682743 -3.1389558 -0.36307007 4294937344
6.3391409 -3.1536531 -0.38250637 4294962944
6.4372025 -3.177964 -0.35371697 4294962432
6.5839071 -3.1722586 -0.38217902 4294967040
6.619297 -3.1962886 -0.3522723 4294967040
7.022037 -3.1396744 -0.35779563 4294931456
8.3974371 -3.1667695 -0.31065965 4294940416
9.1773853 -3.1910625 -0.3304041 4294967040
9.2825308 -3.1917958 -0.37174025 4294967040
9.3128357 -3.1729641 -0.3537049 4294967040
9.417593 -3.1711445 -0.33395213 4294967040
9.5630922 -3.1920662 -0.36603439 4294964480
9.6909389 -3.18015 -0.3773697 4294967040
9.7188377 -3.1086478 -0.37991989 4294967040
6.0298243 -3.0814764 -0.34823579 4294937088
6.1627026 -3.0399101 -0.36562622 4294935808
7.225214 -3.0015578 -0.36456382 4294937856
9.257453 -3.0050473 -0.31652474 4294942464
9.7280512 -3.009768 -0.37712789 4294967040
1.4210787 -2.9303403 -0.36162981 4294937856
6.0520439 -2.9633813 -0.34032959 4294932480
7.1907091 -2.9218383 -0.3479692 4294940672
7.2834549 -2.9355636 -0.3578853 4294946816
7.3483 -2.9460149 -0.37164363 4294946048
8.0491409 -2.9510555 -0.36602235 4294937088
8.6593504 -2.9432325 -0.31729519 4294949120
9.2457466 -2.9364686 -0.33806026 4294962432
9.3285408 -2.9653134 -0.31843781 4294967040
9.5698996 -2.908762 -0.36762184 4294967040
9.6424503 -2.9335389 -0.36706311 4294967040
9.7239227 -2.9803805 -0.38482213 4294967040
1.4796282 -2.8058813 -0.32349107 4294936832
5.7634392 -2.8361034 -0.33760378 4294946560
5.9461632 -2.8509188 -0.3213135 4294928896
7.3167477 -2.8713632 -0.33504888 4294946048
7.9695711 -2.8677826 -0.36473623 4294941952
8.018465 -2.876509 -0.35968968 4294933504
8.6876211 -2.8843031 -0.32351923 4294951680
8.7257824 -2.8371468 -0.35280743 4294954240
9.2793102 -2.8881454 -0.34270787 4294961664
9.32411 -2.8210423 -0.34666169 4294959616
9.5472832 -2.8450496 -0.37025094 4294967040
9.6275969 -2.8978605 -0.35202023 4294967040
1.5308914 -2.7767825 -0.33055937 4294931968
5.3154969 -2.7651129 -0.37177521 4294939392
5.573823 -2.7587337 -0.38112232 4294937856
5.7347546 -2.7794259 -0.30226052 4294928384
5.9220953 -2.767931 -0.32218596 4294929152
7.0287399 -2.7111287 -0.34083694 4294939392
7.7949419 -2.7048309 -0.35902506 4294959616
7.8037748 -2.7231967 -0.3576344 4294961664
8.741046 -2.7789359 -0.32021144 4294952704
9.3560085 -2.7129428 -0.34095111 4294960128
9.5435905 -2.7291846 -0.38905811 4294967040
1.5384538 -2.6357934 -0.36830524 4294940160
5.8615828 -2.6509941 -0.38072741 4294936064
5.9582753 -2.6476963 -0.31432426 4294933760
6.1281099 -2.6317115 -0.39357388 4294956544
6.5926671 -2.603163 -0.33164626 4294967040
6.6830168 -2.6102695 -0.38292244 4294964480
6.7112393 -2.6545668 -0.3846001 4294932480
6.9604979 -2.6810207 -0.36393672 4294938368
7.790863 -2.6891789 -0.35183722 4294961152
7.8492126 -2.6297746 -0.37607369 4294967040
7.9164519 -2.6935925 -0.35487252 4294959104
8.7567272 -2.6937799 -0.31468463 4294950656
9.1938076 -2.6147444 -0.389483 4294962944
9.2535439 -2.6850228 -0.36898947 4294962944
9.3659754 -2.628093 -0.34868813 4294963200
9.4006681 -2.6186745 -0.35438424 4294964736
9.5424633 -2.6664903 -0.38355184 4294967040
9.754693 -2.6148219 -0.35411611 4294967040
1.5679379 -2.5902705 -0.33109611 4294939904
1.6339424 -2.5035064 -0.39318687 4294929408
5.2485828 -2.5601737 -0.31886426 4294960384
5.6541204 -2.5751958 -0.37575394 4294945536
5.839365 -2.5702293 -0.36458445 4294946048
6.147675 -2.545644 -0.35256588 4294959104
6.2293334 -2.5637231 -0.32433057 4294938368
6.5615358 -2.5353518 -0.33800513 4294967040
6.6452465 -2.5809724 -0.38839814 4294967040
7.8807201 -2.5863733 -0.39688134 4294956544
9.3848543 -2.558857 -0.34323609 4294964992
9.4980679 -2.5365763 -0.38102555 4294967040
9.5139313 -2.5317173 -0.37468368 4294967040
9.7453089 -2.5336847 -0.38180014 4294967040
9.8048277 -2.5166082 -0.3713274 4294967040
1.6274022 -2.4811139 -0.35823941 4294931712
5.7676716 -2.4152217 -0.33498654 4294957568
9.0931377 -2.4562254 -0.38748333 4294953472
9.4481869 -2.4513893 -0.34762412 4294967040
9.5041656 -2.4665565 -0.32793143 4294967040
9.7337704 -2.4827538 -0.36839646 4294967040
9.8007317 -2.4209161 -0.3286173 4294967040
5.3840957 -2.3041723 -0.36589822 4294967040
5.4630928 -2.3194635 -0.34635741 4294966272
5.5191574 -2.3841453 -0.36766726 4294946048
5.9302206 -2.3313708 -0.34250885 4294944512
6.0565119 -2.3965569 -0.31900302 4294940672
8.9126158 -2.3232603 -0.3886216 4294931712
9.4536648 -2.3387699 -0.3438153 4294967040
9.5146141 -2.3450658 -0.32913437 4294967040
9.7364902 -2.3426566 -0.3854607 4294967040
4.5785837 -2.2034478 -0.3584789 4294967040
4.6705041 -2.2055292 -0.33331427 4294967040
4.769968 -2.2081809 -0.35783255 4294967040
4.8653612 -2.2226043 -0.36230388 4294967040
4.9276352 -2.2137539 -0.33630431 4294967040
5.0440202 -2.2220604 -0.36022842 4294967040
5.1793652 -2.2266273 -0.33215755 4294967040
5.2772622 -2.220546 -0.34476933 4294967040
5.347023 -2.219584 -0.3300131 4294967040
5.4135804 -2.2779522 -0.33106497 4294967040
5.8707943 -2.2815027 -0.31322592 4294947072
5.9141169 -2.2937562 -0.30804902 4294945280
9.3164349 -2.2864137 -0.30708224 4294962176
9.4720383 -2.264159 -0.35591537 4294954496
9.5221691 -2.2578878 -0.35880455 4294967040
9.7377892 -2.2368517 -0.35048121 4294967040
9.8051109 -2.2120533 -0.35375485 4294967040
-0.41797027 -2.1045749 -0.37842947 4294937344
-0.32040578 -2.1030297 -0.33259192 4294946304
-0.28031459 -2.1028652 -0.3166188 4294947328
0.23269039 -2.1073432 -0.36714014 4294344192
0.31397852 -2.1069307 -0.36549559 4291188480
2.151664 -2.1207607 -0.37991619 4294967040
2.2733855 -2.1251411 -0.36209562 4294967040
2.3176494 -2.1202185 -0.35404935 4294967040
4.190383 -2.1715913 -0.30619282 4294967040
4.2104063 -2.140554 -0.32624942 4294964736
4.4861832 -2.1786203 -0.3389073 4294967040
4.563118 -2.1837704 -0.32871714 4294967040
4.6614389 -2.189522 -0.33853287 4294967040
4.7380352 -2.1874952 -0.35126415 4294965248
4.8487768 -2.1556137 -0.35680306 4294963968
4.9299607 -2.1742792 -0.3772178 4294958592
5.2749567 -2.1841307 -0.37667716 4294967040
5.3144894 -2.1961713 -0.38478106 4294958848
8.4480553 -2.1320596 -0.37041226 4294967040
8.5221996 -2.1561077 -0.37086654 4294964992
9.5195189 -2.1550083 -0.34391353 4294967040
9.6935768 -2.1302605 -0.35253805 4294967040
9.7340927 -2.123786 -0.37748662 4294967040
9.8063736 -2.1138599 -0.35011581 4294967040
-0.73733628 -2.0319479 -0.39120018 4294936064
-0.65727806 -2.043237 -0.35051817 4294939904
-0.53882837 -2.0467081 -0.3380751 4294936320
-0.42512155 -2.0435338 -0.31526095 4294939392
-0.32118309 -2.0823872 -0.32112795 4294954752
-0.23910178 -2.0922582 -0.31350374 4294947584
-0.14344226 -2.0579071 -0.37044635 4294945280
-0.031929366 -2.0633132 -0.36567897 4294942464
0.068725497 -2.0837748 -0.36418259 4294945280
0.12716711 -2.06598 -0.36896127 4294936576
0.20553117 -2.0802324 -0.30351076 4294941952
0.87069046 -2.0452332 -0.36331132 4293878016
2.338625 -2.0576582 -0.36467582 4294952960
3.0509093 -2.0818601 -0.38654196 4294953472
3.1184108 -2.0623345 -0.37566751 4294952192
4.1870308 -2.0738137 -0.31556416 4294967040
5.0680995 -2.000905 -0.3808479 4294934528
8.0833435 -2.0066361 -0.37641835 4294967040
8.151 -2.0294046 -0.35707873 4294967040
8.2370577 -2.0118034 -0.39662349 4294967040
8.356493 -2.0423498 -0.35403216 4294967040
8.4035759 -2.053431 -0.36275697 4294967040
8.5376596 -2.0944905 -0.38285974 4294967040
9.0847597 -2.0419128 -0.37273514 4294944512
9.1294117 -2.0538604 -0.359519 4294944512
9.5285845 -2.0737777 -0.35143882 4294958080
9.7225409 -2.0729737 -0.37317446 4294967040
9.8042955 -2.0731344 -0.34553441 4294967040
-0.7313813 -1.9667881 -0.39794046 4294935552
-0.66623199 -1.9634893 -0.34976172 4294938112
-0.40848479 -1.9528859 -0.37188607 4294933504
-0.16325459 -1.9545065 -0.35441199 4294936320
-0.09558627 -1.9977952 -0.36192825 4294934272
2.3421197 -1.9867926 -0.34101337 4294967040
3.2322955 -1.9655586 -0.33561546 4294951936
4.1906528 -1.9756329 -0.34959167 4294962432
4.2014828 -1.9671588 -0.3526656 4294950656
8.0657043 -1.9546578 -0.38835615 4294967040
8.1474276 -1.9177749 -0.36066967 4294967040
8.2596283 -1.9597365 -0.35909724 4294967040
8.8636942 -1.9200919 -0.35882354 4294958336
8.9550076 -1.9144496 -0.35992008 4294945024
9.0120068 -1.9542221 -0.31158397 4294948352
-0.67291451 -1.8149238 -0.38651112 4294935040
2.3433371 -1.8934299 -0.36083922 4294967040
2.6768932 -1.8513976 -0.38367307 4294967040
2.7168796 -1.8296163 -0.33292395 4294933504
3.3937416 -1.8054138 -0.35750476 4294967040
3.4255843 -1.8085419 -0.38697666 4294967040
3.7495348 -1.8120403 -0.36317664 4294967040
3.963994 -1.8317089 -0.34962898 4294967040
4.0380507 -1.826194 -0.35681701 4294967040
4.1257439 -1.8158585 -0.36065376 4294967040
8.1626816 -1.8596706 -0.39254069 4294967040
8.2064056 -1.8534741 -0.38113359 4294967040
8.6812458 -1.8227577 -0.34425563 4294967040
8.7454958 -1.8535448 -0.32459843 4294967040
8.8096256 -1.8944052 -0.36187366 4294956032
8.9764252 -1.8775992 -0.32563826 4294939136
9.0262213 -1.8658991 -0.33904117 4294937600
-0.67221677 -1.7195641 -0.3576383 4294935296
0.35516268 -1.7255694 -0.34411493 4294932480
2.674859 -1.777173 -0.34775364 4294943744
2.7300835 -1.7461598 -0.33038816 4294949376
3.3851466 -1.7905965 -0.33499014 4294967040
3.4557695 -1.7869829 -0.36039543 4294967040
3.5642247 -1.7384739 -0.35716993 4294964736
3.6620255 -1.7823695 -0.35765007 4294967040
3.7322633 -1.7937227 -0.38915721 4294967040
3.8408227 -1.7904904 -0.36281818 4294967040
3.9379268 -1.7862946 -0.37409019 4294967040
4.1699514 -1.77158 -0.32291526 4294967040
4.2019444 -1.7723566 -0.3624118 4294967040
8.1592159 -1.7957522 -0.39928788 4294967040
8.5905876 -1.7262981 -0.34477904 4294967040
8.6793594 -1.7746239 -0.31700605 4294967040
8.9748125 -1.7996523 -0.32979873 4294941184
9.0342674 -1.7113043 -0.34166616 4294936064
-0.66395241 -1.6430498 -0.38420731 4294929408
0.17301717 -1.6801009 -0.30599144 4294931456
0.227606 -1.6322722 -0.31119704 4294934784
0.37928414 -1.6801119 -0.32867426 4294934272
0.47550088 -1.6173838 -0.31336284 4294932736
0.51459491 -1.6587207 -0.35450619 4294932480
2.6942708 -1.6801279 -0.32613742 4294945536
2.7625999 -1.6346008 -0.36360466 4294948352
2.8432686 -1.614284 -0.3497327 4294945024
3.3648422 -1.6782873 -0.34231016 4294967040
3.4313314 -1.678759 -0.33805549 4294967040
3.5243597 -1.66061 -0.35132527 4294964224
3.6771123 -1.6761808 -0.38187528 4294946816
3.7446306 -1.6725101 -0.37539047 4294958592
3.8253417 -1.6783438 -0.33676469 4294958848
4.0916533 -1.6064579 -0.309789 4294967040
4.1214161 -1.6206629 -0.34393054 4294967040
4.2298503 -1.6107326 -0.35406634 4294966528
8.5851326 -1.6946919 -0.39855853 4294967040
8.6423302 -1.6223526 -0.34775978 4294964480
8.7295418 -1.6240649 -0.32313713 4294956032
8.8375607 -1.6553545 -0.31265351 4294963968
9.0060682 -1.6025379 -0.34341425 4294953984
0.014718644 -1.5679103 -0.30633131 4294937344
0.29457882 -1.578748 -0.31102118 4294933760
0.48363942 -1.5512007 -0.37837031 4294931968
0.51147199 -1.5358121 -0.35620171 4294933248
2.3705866 -1.528401 -0.34481576 4294967040
2.4202378 -1.5652504 -0.33958858 4294967040
2.7389452 -1.5481362 -0.36057344 4294949632
2.826587 -1.5909698 -0.36859828 4294946304
2.9473782 -1.5608323 -0.34714407 4294934016
3.0234282 -1.53126 -0.3361581 4294931968
3.1207976 -1.5241737 -0.3373037 4294934528
3.3942111 -1.5031914 -0.3915582 4294959104
3.453649 -1.5245703 -0.33637935 4294967040
3.5509017 -1.5661707 -0.35841662 4294950144
3.6724057 -1.5503377 -0.33786336 4294943488
3.7571206 -1.5480032 -0.32590604 4294945536
4.0823669 -1.5706143 -0.33323717 4294967040
4.1713552 -1.5436101 -0.32624155 4294967040
8.5937939 -1.5433431 -0.3559587 4294967040
8.6709328 -1.5539649 -0.33851722 4294967040
8.7632141 -1.5482696 -0.34624577 4294967040
8.8458633 -1.599092 -0.31045893 4294966784
8.9784126 -1.5049725 -0.33361393 4294967040
9.0715389 -1.5171411 -0.33670413 4294967040
9.1160927 -1.5385571 -0.30733365 4294967040
9.2310162 -1.5240529 -0.30455747 4294967040
9.3392849 -1.5053346 -0.30679721 4294967040
9.4794292 -1.5082607 -0.32824799 4294967040
9.5696793 -1.5204403 -0.36546528 4294967040
9.6690168 -1.5471349 -0.34271243 4294967040
9.72089 -1.5098412 -0.36234587 4294967040
0.48128858 -1.4289541 -0.35250574 4294936064
0.51926517 -1.4716324 -0.3593533 4294930944
2.3650665 -1.4605769 -0.32743329 4294967040
2.5597763 -1.4010177 -0.34768975 4294961152
2.7570088 -1.4410599 -0.34092733 4294949888
2.8322124 -1.4519343 -0.33082426 4294947584
2.9317989 -1.4298018 -0.34208339 4294944256
3.1292195 -1.4681286 -0.32585418 4294942976
3.2507553 -1.4764397 -0.32290855 4294952448
3.3177862 -1.4238657 -0.3046326 4294957568
3.4211662 -1.489933 -0.33903897 4294967040
3.5425062 -1.4830312 -0.35120839 4294948608
3.6459274 -1.4709454 -0.32269132 4294954496
4.0791831 -1.4210081 -0.3455162 4294967040
4.1558676 -1.4712992 -0.36637205 4294967040
8.6694183 -1.4820687 -0.31910247 4294967040
8.7035418 -1.4531955 -0.36238849 4294967040
8.8697853 -1.4806125 -0.38946092 4294967040
8.983016 -1.4557221 -0.38954872 4294967040
9.0232019 -1.4806037 -0.33085096 4294967040
9.1491566 -1.4273779 -0.37248063 4294967040
9.2400389 -1.4529966 -0.35023233 4294967040
9.3426476 -1.4582179 -0.3441515 4294967040
9.4532909 -1.4565004 -0.35712802 4294967040
9.5753708 -1.4610486 -0.37769207 4294967040
9.6642294 -1.4641094 -0.36383504 4294967040
9.7495804 -1.4473002 -0.36225563 4294967040
9.8038044 -1.4256586 -0.33842081 4294967040
2.3649769 -1.3457232 -0.32501251 4294967040
2.4411931 -1.3761692 -0.33844906 4294967040
2.5654516 -1.3321592 -0.35417145 4294967040
2.632803 -1.3311102 -0.37450203 4294964736
2.7391949 -1.3170509 -0.34395042 4294953984
2.861877 -1.3170707 -0.35779089 4294944512
2.9170794 -1.3666923 -0.36372685 4294941696
3.4495525 -1.3294039 -0.35617456 4294949120
3.5687184 -1.3454185 -0.35021564 4294942976
4.0808291 -1.3250877 -0.35972869 4294967040
4.167798 -1.3388703 -0.37611106 4294967040
8.7795286 -1.3207335 -0.39662939 4294967040
8.835165 -1.3639408 -0.38945591 4294967040
8.9525928 -1.3302139 -0.37672317 4294967040
9.0269184 -1.31777 -0.38000286 4294967040
9.1369066 -1.3586547 -0.35355616 4294967040
9.2402983 -1.3675191 -0.3422212 4294967040
9.3685179 -1.3249266 -0.36526397 4294967040
9.4289494 -1.3915625 -0.3567158 4294967040
9.5307274 -1.378494 -0.3347351 4294965248
9.6888618 -1.3444133 -0.34897077 4294967040
9.728653 -1.3853602 -0.36392173 4294967040
9.8055029 -1.329298 -0.38455343 4294967040
2.3787813 -1.2416592 -0.32233 4294967040
2.4132128 -1.2260816 -0.35612482 4294967040
2.5119348 -1.2496192 -0.36278713 4294967040
2.6442947 -1.2618573 -0.35152584 4294961664
2.7770746 -1.2679601 -0.33918649 4294955776
2.8562148 -1.2613177 -0.3261587 4294946816
4.0904741 -1.2181201 -0.32471925 4294967040
4.1715474 -1.2255441 -0.33040124 4294967040
8.9916019 -1.2941271 -0.38696432 4294967040
9.0743999 -1.2130612 -0.32817483 4294967040
9.1059628 -1.2465067 -0.32765141 4294967040
9.2361355 -1.2395971 -0.32951814 4294967040
9.3125553 -1.261479 -0.34718078 4294967040
9.456707 -1.266479 -0.34155673 4294967040
9.6496525 -1.2992666 -0.3551783 4294961664
9.7539635 -1.2718154 -0.38571858 4294967040
9.8048458 -1.2665817 -0.37774849 4294967040
2.384726 -1.179647 -0.3356446 4294967040
2.4111471 -1.1232021 -0.3693628 4294967040
2.5851636 -1.1911905 -0.35391223 4294956800
2.6791186 -1.1832191 -0.36198139 4294948096
4.0900674 -1.1332531 -0.31505376 4294967040
4.1369233 -1.183445 -0.32653064 4294967040
9.080267 -1.1662824 -0.34274191 4294967040
9.1304436 -1.1453211 -0.3430714 4294967040
9.8006248 -1.1900748 -0.33873767 4294965504
2.4472752 -1.0836663 -0.37074903 4294962688
2.5592141 -1.0313728 -0.34132385 4294951168
2.6070836 -1.0349791 -0.34357649 4294948864
4.071125 -1.0905422 -0.30820891 4294967040
4.1463394 -1.0828934 -0.31085715 4294967040
9.0751095 -1.0509195 -0.35088527 4294967040
9.1449127 -1.0150476 -0.34805107 4294967040
2.3929255 -0.95482957 -0.37335908 4294948864
2.4118018 -0.9764846 -0.37513936 4294946816
2.5460081 -0.97247881 -0.33382595 4294948352
2.6142247 -0.94636977 -0.33468503 4294947328
4.0953169 -0.95755959 -0.38327906 4294967040
4.1330481 -0.93734616 -0.33685088 4294967040
9.0973997 -0.95726836 -0.34005678 4294967040
9.785984 -0.91052854 -0.35618916 4294967040
2.4369783 -0.85443574 -0.35626507 4294938368
4.0957694 -0.82969916 -0.36804903 4294967040
4.152092 -0.82312417 -0.36588711 4294967040
9.0904846 -0.84580064 -0.32742155 4294967040
9.1104927 -0.85015047 -0.32928586 4294967040
9.260294 -0.80964798 -0.38078073 4294967040
9.3582554 -0.82280779 -0.3705112 4294956288
9.4499235 -0.82012427 -0.36531562 4294962176
9.5343542 -0.82142484 -0.38703114 4294967040
9.6818886 -0.84487045 -0.33950576 4294967040
9.7568302 -0.83763242 -0.37067127 4294967040
9.8046293 -0.86339825 -0.31197652 4294967040
2.3952403 -0.73975015 -0.36858571 4294967040
2.4080882 -0.70746946 -0.37676677 4294967040
4.0741687 -0.75268567 -0.37953925 4294967040
4.1755977 -0.78503001 -0.36712122 4294967040
4.2075572 -0.79734629 -0.33175814 4294967040
9.08321 -0.78703558 -0.38177419 4294967040
9.1316757 -0.76768595 -0.34565991 4294967040
9.2593651 -0.78266215 -0.37587512 4294967040
9.3252001 -0.73322535 -0.32881957 4294967040
9.4386597 -0.7460438 -0.36045614 4294967040
9.53794 -0.73405397 -0.33125532 4294967040
9.6701527 -0.74153507 -0.34506449 4294967040
9.7331371 -0.77128512 -0.36202419 4294967040
2.370059 -0.67188013 -0.3839491 4294967040
2.4053943 -0.66677243 -0.38774347 4294967040
4.0847006 -0.62102127 -0.31225172 4294967040
4.1727657 -0.60542083 -0.36388624 4294967040
4.2101517 -0.64829296 -0.37270126 4294967040
7.9806619 -0.6136539 -0.3900516 4294967040
8.0266838 -0.61578411 -0.3851769 4294967040
8.1233215 -0.62265682 -0.39427304 4294967040
9.1416321 -0.60509801 -0.39254349 4294967040
9.2655716 -0.63537014 -0.34669662 4294967040
9.3511105 -0.62762058 -0.35182339 4294967040
9.4353561 -0.63073343 -0.35693517 4294967040
9.5340204 -0.64776719 -0.34745657 4294967040
9.6779881 -0.67791826 -0.36152464 4294967040
9.7282925 -0.61936504 -0.3698464 4294967040
9.801136 -0.65153867 -0.34949839 4294967040
3.5846212 -0.50978911 -0.35130093 4294967040
3.8999767 -0.52919 -0.34529355 4292726528
3.9823277 -0.56281108 -0.33805344 4278715392
4.0483627 -0.5477373 -0.37239033 4294967040
4.1333117 -0.58891678 -0.34088546 4294967040
7.9867625 -0.55225593 -0.3958438 4294967040
8.0203257 -0.532197 -0.37425429 4294967040
8.1298389 -0.56003129 -0.36610347 4294967040
8.2245979 -0.54317647 -0.36429432 4294966784
8.4112225 -0.51460683 -0.36722508 4294967040
8.8160896 -0.52533126 -0.38681811 4294967040
9.1477041 -0.58573103 -0.38362601 4294967040
9.2142143 -0.55212295 -0.3611396 4294967040
9.3437233 -0.54809535 -0.34556156 4294967040
9.429985 -0.51938283 -0.38183898 4294967040
9.525547 -0.51806235 -0.33753783 4294966784
9.7382317 -0.57422602 -0.3804388 4294967040
3.3497975 -0.45691225 -0.35542691 4294967040
7.9769592 -0.46754026 -0.38939339 4294967040
8.0114937 -0.45436233 -0.35199279 4294967040
8.1088266 -0.40844268 -0.31581634 4294944256
8.2407284 -0.41856375 -0.38795775 4294967040
8.3679123 -0.45641306 -0.37980205 4294967040
8.4461403 -0.4465546 -0.35457665 4294967040
8.5655842 -0.46701553 -0.39179552 4294967040
8.6028557 -0.40125817 -0.35534394 4294967040
8.9629049 -0.41521078 -0.39562976 4294967040
9.1587925 -0.4456161 -0.38906008 4294967040
9.2707005 -0.43345463 -0.32186022 4294967040
9.3489685 -0.41812247 -0.30731869 4294967040
9.4369946 -0.48071271 -0.37051678 4294967040
9.530736 -0.44534698 -0.36182851 4294967040
9.6669493 -0.43537083 -0.34758827 4294967040
9.7334576 -0.44804472 -0.36670846 4294967040
9.8082581 -0.48142695 -0.3291626 4294967040
7.9585948 -0.37913013 -0.36282641 4294967040
8.0375872 -0.38684011 -0.36511558 4294967040
8.1224079 -0.35635036 -0.32301173 4294967040
8.2682438 -0.35396606 -0.37139845 4294967040
8.3360634 -0.36130035 -0.38673192 4294967040
8.4550028 -0.34035158 -0.35966787 4294967040
8.5418835 -0.35620233 -0.34916949 4294967040
8.6206799 -0.35719752 -0.36090153 4294967040
8.8759804 -0.324431 -0.34240249 4294967040
8.9636965 -0.35414153 -0.35083658 4294967040
9.0613766 -0.32617718 -0.38619518 4294967040
9.1294889 -0.3328467 -0.3867991 4294967040
9.2545872 -0.37035882 -0.33136457 4294967040
9.3637629 -0.31336629 -0.33666295 4294967040
9.4531078 -0.32350332 -0.37141037 4294967040
9.5553455 -0.31238705 -0.36501542 4294967040
9.6375828 -0.3753553 -0.36407614 4294967040
9.7293406 -0.36775136 -0.37436891 4294967040
9.8039875 -0.35012889 -0.3131659 4294967040
7.9803748 -0.22925374 -0.39124238 4294967040
8.1562996 -0.29253548 -0.38980299 4294967040
8.2699585 -0.29600385 -0.36843503 4294967040
8.3736582 -0.29761288 -0.35602549 4294967040
8.4722061 -0.265329 -0.35929513 4294967040
8.5382671 -0.27238899 -0.34915721 4294966784
9.1450901 -0.28561357 -0.38251287 4294967040
9.2764473 -0.22784244 -0.37485754 4294967040
9.3171749 -0.23861136 -0.35219938 4294967040
9.4640179 -0.2800042 -0.35308236 4294967040
9.5538054 -0.28922868 -0.34289229 4294967040
9.6201572 -0.28633118 -0.35399002 4294967040
9.7423115 -0.24524161 -0.36608809 4294967040
9.8032341 -0.21016407 -0.31891593 4294967040
7.9985671 -0.15031168 -0.38799271 4294956032
8.3336668 -0.19497234 -0.35557458 4294967040
9.1680355 -0.13803184 -0.39471132 4294967040
9.2402077 -0.17010462 -0.38403642 4294967040
9.3718624 -0.19556922 -0.32491755 4294967040
9.7387047 -0.17845796 -0.37505189 4294967040
9.8030376 -0.18076955 -0.33595645 4294967040
7.7498074 -0.083931878 -0.39393562 4294967040
7.8481998 -0.039925631 -0.39167163 4294967040
8.085619 -0.026437458 -0.37879854 4294967040
8.1246376 -0.026950914 -0.38189957 4294967040
8.2621212 -0.024666566 -0.35788476 4294967040
8.6584959 -0.025515119 -0.38972184 4294956032
8.7030544 -0.046179511 -0.39903924 4294957568
9.4396152 -0.0054437276 -0.35748777 4294967040
9.5236092 -0.012350742 -0.32806617 4294966272
9.6921082 -0.0064643277 -0.31889534 4294967040
9.7530909 -0.017409556 -0.36303395 4294967040
9.806427 -0.052277394 -0.39301765 4294967040
7.8042841 0.013807818 -0.39303598 4294956288
8.1340103 0.010309845 -0.38297731 4294967040
8.2920322 0.085955262 -0.39360186 4294967040
8.3185482 0.09306328 -0.36940718 4294967040
8.4386501 0.05139054 -0.37667096 4294964480
8.5181713 0.033905931 -0.38524574 4294948608
8.639576 0.042279094 -0.39395177 4294956032
9.0967474 0.040662393 -0.38213509 4294967040
9.1704254 0.054103248 -0.3407948 4294967040
9.2292271 0.067919359 -0.35353228 4294967040
9.3043947 0.044864625 -0.32818878 4294967040
9.4784622 0.0094317207 -0.34767216 4294967040
9.558672 0.034715682 -0.33315736 4294942976
9.6854658 0.014218815 -0.33659798 4294967040
9.7185574 0.003805263 -0.35676953 4294967040
9.8068008 0.020122215 -0.32551295 4294967040
8.2393913 0.11825944 -0.3930037 4294967040
8.3264809 0.10608727 -0.38005608 4294967040
8.5411911 0.12654856 -0.37102759 4294959360
9.0992537 0.13545084 -0.34250534 4294967040
9.1413383 0.1029703 -0.32594162 4294967040
9.24123 0.1320838 -0.39144844 4294967040
9.4274597 0.1322197 -0.30143622 4294967040
9.5787821 0.10782501 -0.33659995 4294967040
9.6379356 0.10833708 -0.32418779 4294966272
9.7650852 0.11286771 -0.350784 4294967040
9.8046417 0.10814561 -0.33488157 4294967040
8.2845097 0.26995891 -0.31527928 4294967040
8.3089008 0.2550849 -0.31235433 4294967040
8.4097557 0.25967738 -0.34922409 4294967040
9.0780582 0.26531839 -0.31484774 4294967040
9.155262 0.23602678 -0.33553529 4294967040
9.2372427 0.26993427 -0.35163343 4294967040
9.3420486 0.2712025 -0.33010834 4294967040
9.4252014 0.29430836 -0.3614521 4294967040
9.5187988 0.27630931 -0.30284229 4294967040
9.8188219 0.21918122 -0.34849903 4294967040
8.2770977 0.31578952 -0.34269875 4294967040
8.3097305 0.30887616 -0.35736752 4294967040
8.476099 0.36531582 -0.35582674 4294967040
8.5100412 0.39765376 -0.33004263 4294967040
8.6241722 0.36294621 -0.3166241 4294967040
9.0834198 0.38191313 -0.3857041 4294967040
9.1171474 0.30979764 -0.39439535 4294967040
9.2795715 0.31305701 -0.30743295 4294967040
9.3118782 0.31649894 -0.30671054 4294967040
9.4303112 0.3113896 -0.34136552 4294967040
9.5243053 0.31786835 -0.34260899 4294967040
9.7856436 0.34795448 -0.31650403 4294967040
9.8131618 0.30653113 -0.30664551 4294967040
4.6904573 0.4474178 -0.31733334 4294967040
4.7050772 0.44956893 -0.36625412 4294967040
8.4919357 0.41785413 -0.33815438 4294967040
8.5660086 0.46478054 -0.33727098 4294967040
9.0591965 0.47954589 -0.36793238 4294967040
9.1165791 0.4195165 -0.39286289 4294967040
9.2747459 0.41967899 -0.32944447 4294967040
9.8117733 0.40172023 -0.32953554 4294960896
8.5879602 0.50823545 -0.3436141 4294967040
8.6364574 0.53925431 -0.33368787 4294967040
9.0945015 0.5058583 -0.36427087 4294967040
9.1209259 0.51003456 -0.36465377 4294967040
9.2948856 0.52217847 -0.31367204 4294967040
9.305377 0.52327585 -0.31512138 4294967040
-0.53882593 0.66452318 -0.35116962 4294967040
6.1904378 0.64469087 -0.34453058 4293767680
6.2556839 0.66078466 -0.35407263 4294967040
6.3466311 0.6797204 -0.34060085 4294967040
6.4124165 0.69105875 -0.34223884 4294967040
6.5042315 0.67071784 -0.37279761 4294966016
6.6773863 0.67503309 -0.37664679 4294967040
6.7068868 0.68478006 -0.33303359 4294967040
7.6638823 0.69121671 -0.36336115 4294959104
7.7956333 0.685215 -0.367634 4294967040
7.8439331 0.68101192 -0.39616022 4294967040
7.9125981 0.63458586 -0.32293499 4294967040
8.68647 0.61806023 -0.34274212 4294967040
8.762084 0.66046238 -0.31501082 4294967040
8.8149958 0.69335479 -0.32876909 4294967040
9.1302586 0.61281669 -0.33724278 4294967040
9.4383497 0.62642395 -0.31070587 4294967040
9.5185556 0.67781293 -0.31288368 4294967040
-0.88876128 0.79442984 -0.36304486 4294967040
-0.73186475 0.78599513 -0.35979816 4294967040
-0.67990577 0.78833133 -0.35666177 4294967040
-0.42312813 0.79205477 -0.31023896 4294956288
-0.38803434 0.78833377 -0.3300482 4294967040
2.056447 0.75018346 -0.39285046 4294937088
2.2740555 0.74033684 -0.376488 4294932480
2.3424551 0.78943217 -0.36632392 4294937088
6.6644959 0.72420168 -0.34299546 4294967040
6.7380571 0.76508594 -0.34909207 4294967040
6.9713092 0.77222776 -0.32957894 4294967040
7.6428123 0.71225047 -0.34639323 4294962944
7.7950363 0.73230892 -0.31685519 4294967040
7.8647614 0.75918329 -0.33670676 4294967040
7.9437714 0.74459225 -0.33262438 4294967040
8.0286198 0.77162015 -0.3213315 4294967040
8.7723694 0.71493495 -0.31880051 4294967040
8.82197 0.71034157 -0.33856946 4294967040
8.914854 0.7496506 -0.30784106 4294967040
9.1705952 0.72630131 -0.3085531 4294965248
9.2750664 0.74626678 -0.30066717 4294967040
9.3333006 0.77470064 -0.30743343 4294967040
9.5174866 0.72604358 -0.30720514 4294965248
-1.8294401 0.89668417 -0.33205378 4294955008
-1.7681739 0.89702451 -0.34358883 4294952704
-1.605076 0.86283541 -0.39870048 4294940416
-1.5848315 0.85795009 -0.39194828 4294941440
-1.441092 0.85850865 -0.39460304 4294938112
-1.1258315 0.83049476 -0.35005587 4294966016
-1.0340586 0.8197189 -0.36151716 4294966528
-0.72641337 0.82919049 -0.3031266 4294967040
-0.6919927 0.83711517 -0.32319045 4294967040
-0.43249768 0.83253336 -0.31032377 4294967040
-0.3957282 0.89453822 -0.31786069 4294967040
-0.10966922 0.80308396 -0.30158141 4294963200
0.76699185 0.89477038 -0.38315502 4294967040
2.3442783 0.80489182 -0.38187385 4294935808
6.3617063 0.88950551 -0.3098518 4294959872
6.472394 0.88603318 -0.35573459 4294947072
6.510077 0.86017936 -0.38984177 4294956544
6.6926394 0.87682581 -0.37911412 4294967040
6.7310262 0.85063708 -0.39761832 4294967040
7.7494259 0.84079623 -0.37447727 4294967040
7.8637257 0.87927377 -0.36101365 4294967040
7.9484544 0.84136844 -0.34547395 4294967040
8.527544 0.88402611 -0.38017493 4294943232
8.6693926 0.85755086 -0.32673174 4294946816
8.7265778 0.84529388 -0.32222247 4294967040
8.8672352 0.86218035 -0.32472962 4294967040
8.9073982 0.85235715 -0.32465103 4294967040
9.0246563 0.86229122 -0.33025807 4294967040
9.3303986 0.83318889 -0.31518149 4294965248
9.4899883 0.88865757 -0.31920728 4294967040
9.5709772 0.87112755 -0.34019712 4294967040
9.6480951 0.87461948 -0.31209502 4294964736
-1.8599505 0.90243745 -0.33951035 4294953472
-1.776593 0.91048443 -0.37999347 4294956032
-1.6772356 0.9670434 -0.32645103 4294946048
-1.5709789 0.93790638 -0.33552766 4294944256
-0.40210533 0.90211034 -0.3420918 4294967040
-0.39537358 0.90119886 -0.34131521 4294967040
0.55029291 0.9677394 -0.39796185 4294967040
0.65725541 0.96197671 -0.37517518 4294967040
0.75505006 0.91751301 -0.36509937 4294966272
0.85267031 0.95966965 -0.37486714 4294963712
0.98104721 0.97315872 -0.37738007 4294967040
1.0620301 0.94660139 -0.33561724 4294967040
1.1010146 0.9327457 -0.3312116 4294955776
4.0978193 0.99390578 -0.35019532 4294967040
4.1580095 0.9729799 -0.38761893 4294967040
6.4806118 0.91035956 -0.32833263 4294958848
6.5545478 0.97727031 -0.34111127 4294967040
6.6882024 0.96149355 -0.32458806 4294967040
6.7544279 0.95288295 -0.38399696 4294967040
6.8392444 0.95521414 -0.33305809 4294967040
6.9534149 0.96849817 -0.34656835 4294967040
7.0398703 0.97307622 -0.32694602 4294967040
7.1588182 0.97588646 -0.35464692 4294967040
7.2301669 0.97092515 -0.3793681 4294967040
7.3590164 0.97274345 -0.36287084 4294967040
7.4734917 0.96082842 -0.38400462 4294967040
7.5741711 0.95095587 -0.36325216 4294967040
7.6435299 0.960747 -0.3768442 4294967040
7.7469482 0.95862103 -0.38979465 4294967040
7.8386641 0.94944829 -0.36402336 4294967040
7.9227047 0.91070694 -0.33057544 4294967040
8.5904083 0.92429292 -0.34352356 4294937600
8.6867294 0.95219529 -0.3490079 4294949120
8.7683315 0.93218732 -0.36295351 4294967040
8.8419437 0.91326874 -0.3192507 4294967040
8.9510021 0.95432311 -0.38897175 4294967040
9.0314369 0.90660268 -0.39932439 4294967040
9.4937477 0.9514575 -0.3510834 4294967040
9.5178452 0.92461646 -0.34509856 4294967040
9.6251545 0.91340816 -0.30307284 4294967040
-1.9667934 1.0668349 -0.35338402 4294951680
-1.7801571 1.0018013 -0.31984198 4294951424
-1.6845595 1.0059085 -0.39869052 4294937088
-0.41108122 1.0290297 -0.30229154 4294967040
-0.39527258 1.0140128 -0.31225815 4294966528
-0.009804354 1.0803 -0.31287348 4294946816
0.35530955 1.0575931 -0.38537651 4294946816
0.45131755 1.0195298 -0.39170241 4294957056
0.54417133 1.0110172 -0.39907309 4294962944
1.0787694 1.0176899 -0.36388898 4294967040
1.1487634 1.0432057 -0.34065038 4294967040
1.2176166 1.0833652 -0.3318662 4294967040
4.0600452 1.0663399 -0.34439325 4294967040
4.1615577 1.0051169 -0.33108824 4294967040
4.2112894 1.0185708 -0.37118575 4294967040
5.9719753 1.0979277 -0.31883681 4294967040
6.0001068 1.0975425 -0.32121575 4294967040
6.3441544 1.0612991 -0.38371688 4294967040
6.4335833 1.093029 -0.35428262 4294967040
6.6578693 1.048281 -0.34820229 4294967040
6.7375574 1.0195745 -0.3739146 4294967040
6.8099384 1.0745013 -0.35429978 4294967040
6.9392891 1.0195708 -0.33451819 4294967040
7.0298038 1.0036027 -0.37883192 4294967040
7.1307135 1.0124352 -0.36527541 4294967040
7.2285705 1.0210758 -0.37079281 4294967040
7.3370399 1.0558468 -0.35746658 4294967040
7.4250975 1.0603199 -0.35042298 4294967040
7.5622926 1.0811505 -0.32673287 4294966784
7.6741819 1.0323235 -0.3194536 4294967040
7.7506685 1.0407767 -0.31588081 4294967040
7.857893 1.0058188 -0.36262113 4294967040
8.869072 1.0221258 -0.32036352 4294967040
8.9702435 1.024911 -0.34353667 4294967040
9.4871578 1.0332236 -0.32369691 4294967040
9.5097322 1.0383118 -0.33177474 4294967040
-2.1071599 1.1327431 -0.38621503 4293503744
-2.0725095 1.1256137 -0.36226594 4292386048
-1.9957049 1.1434561 -0.314928 4289492992
-0.42676759 1.1295168 -0.30677307 4294967040
-0.39113533 1.1435409 -0.30928233 4294967040
-0.032219097 1.1200087 -0.32033017 4294947072
0.047511414 1.1320984 -0.38740578 4294948096
0.18363416 1.1220675 -0.39626473 4294947072
1.2125334 1.1093082 -0.35028809 4294967040
4.0783682 1.12151 -0.33198637 4294967040
4.1316619 1.1227242 -0.30540556 4294967040
4.2484856 1.1928577 -0.34290478 4294967040
5.5819645 1.1920447 -0.32819718 4294967040
5.6795158 1.1945322 -0.31845188 4294967040
5.7426429 1.1933364 -0.33399284 4294967040
5.8598986 1.1951201 -0.36763716 4294956032
5.9961171 1.1207054 -0.32867014 4294967040
6.0715609 1.126744 -0.34218982 4294967040
6.1190262 1.1474552 -0.34967601 4294967040
6.2199116 1.1560478 -0.32417828 4294967040
6.3182011 1.1651399 -0.37021846 4294967040
6.4432735 1.1933875 -0.35522956 4294942464
6.5403433 1.1789844 -0.36083725 4294967040
6.6858578 1.1952901 -0.38111681 4294967040
6.7320824 1.1955004 -0.37635225 4294967040
7.1722937 1.1391342 -0.31045574 4294950400
7.2255378 1.1680546 -0.30580261 4294967040
7.3684497 1.1208665 -0.31139338 4294966272
7.4740787 1.1367174 -0.33269605 4294966528
7.5394626 1.1179025 -0.32562381 4294953728
7.770154 1.152817 -0.34813359 4294967040
7.8199606 1.172914 -0.31397253 4294967040
8.0040379 1.1114179 -0.32688993 4294967040
8.8349543 1.1387094 -0.3871392 4294967040
8.9520607 1.1491199 -0.33455139 4294967040
9.0569897 1.1146033 -0.32942876 4294967040
9.1167059 1.1264898 -0.31638092 4294967040
9.5600624 1.1699418 -0.34856963 4294967040
9.6010075 1.1955003 -0.39492586 4294967040
-4.5044556 1.2635067 -0.32208702 4278583808
-4.4414883 1.2494326 -0.33212304 4289561088
-4.3542213 1.2383112 -0.30860296 4288708864
-4.2736778 1.2249424 -0.33615404 4292191744
-4.1192245 1.2565223 -0.31591159 4292193536
-4.0798225 1.2469456 -0.38031894 4292521728
-2.148638 1.2478026 -0.32292855 4293504000
-0.54340088 1.2713572 -0.35674542 4294967040
-0.43593448 1.2153436 -0.32615858 4294967040
4.2824564 1.2132427 -0.36502784 4294967040
4.3642149 1.2509279 -0.31368586 4294967040
4.4192224 1.2808615 -0.32127938 4294967040
5.3971052 1.2817233 -0.32289532 4294967040
5.4206381 1.2435646 -0.32211617 4294967040
5.5661755 1.2676455 -0.34528109 4294967040
5.620317 1.2083373 -0.34645414 4294967040
5.7754087 1.2108407 -0.33008915 4294967040
5.8527546 1.2107441 -0.35036057 4294967040
5.9818902 1.2269341 -0.3206476 4294967040
6.0282106 1.2368276 -0.31701422 4294967040
6.1038013 1.2200353 -0.35343909 4294967040
6.5624609 1.2160499 -0.35053945 4294967040
6.6700644 1.203984 -0.36166912 4294967040
6.7207489 1.206985 -0.35010999 4294967040
6.8233137 1.2326751 -0.30189088 4294966528
7.4686127 1.2372272 -0.3055777 4294953216
7.5530863 1.2239565 -0.3159638 4294953984
7.6289062 1.234051 -0.3260895 4294967040
7.7293358 1.2532755 -0.3337571 4294967040
7.828145 1.2259096 -0.30463174 4294967040
8.1830063 1.2886938 -0.34117275 4294967040
8.2240143 1.2815272 -0.35617697 4294967040
8.711647 1.2797234 -0.39562806 4294967040
8.9655323 1.2255092 -0.33368495 4294967040
9.0800438 1.2445469 -0.33012682 4294967040
9.1429329 1.2481747 -0.31543648 4294967040
9.5754528 1.2202268 -0.38793862 4294967040
9.6351757 1.2722744 -0.32137114 4294967040
-4.5653782 1.351486 -0.33148131 4294952192
-0.70904529 1.3618394 -0.34035093 4293561600
-0.69062871 1.337451 -0.34681344 4294963456
3.9442492 1.3796246 -0.37242147 4294961920
4.3770475 1.3165057 -0.3582713 4294967040
4.4489985 1.3579082 -0.33056882 4294967040
5.4451871 1.3042569 -0.36025119 4294967040
5.5861959 1.3827833 -0.35864621 4294967040
5.6232882 1.3770145 -0.37724936 4294967040
8.1816807 1.3046319 -0.36587822 4294967040
8.2233696 1.3209342 -0.34912407 4294967040
8.6332188 1.3958172 -0.39336005 4294961152
9.0864029 1.3532155 -0.38213551 4294967040
9.1133347 1.3463761 -0.3308045 4294967040
9.4898348 1.3422313 -0.38677835 4294962176
9.5639648 1.3266159 -0.38973707 4294967040
9.6737127 1.3586885 -0.31569943 4294967040
9.7576351 1.3436666 -0.32281989 4294967040
3.7766466 1.4737302 -0.35231474 4294946560
3.8636312 1.4787471 -0.33260459 4294948096
3.9586744 1.4758235 -0.34424755 4294957312
4.0691214 1.4794843 -0.36932945 4294962688
4.1201782 1.4720495 -0.32518339 4294960384
4.235641 1.4867246 -0.32472301 4294967040
4.3682046 1.4698193 -0.36836404 4294967040
4.4434652 1.454067 -0.33455211 4294967040
5.5805302 1.4240842 -0.34024441 4294967040
5.635787 1.425864 -0.31805742 4294967040
8.2919159 1.4292043 -0.35471371 4294967040
8.3124371 1.473244 -0.34860408 4294967040
9.0520763 1.4125514 -0.36744893 4294966528
9.1604328 1.4351895 -0.3178156 4294967040
9.2084713 1.4843574 -0.37414122 4294967040
9.5637121 1.4233273 -0.32340628 4294967040
9.6471519 1.4280293 -0.31985185 4294967040
9.7302532 1.446999 -0.3033534 4294967040
-4.7311563 1.5378845 -0.34096634 4294962176
-4.6553535 1.5309768 -0.35503107 4294962432
-4.360858 1.5331078 -0.33475101 4294955520
-4.294591 1.5151821 -0.35464811 4294955264
3.9579749 1.5336653 -0.33734909 4294931712
4.0983791 1.5079548 -0.37838569 4294961152
4.1979494 1.5104673 -0.3066172 4294965760
4.2843971 1.5132499 -0.33174181 4294967040
4.3270922 1.5328667 -0.33219725 4294967040
4.4611664 1.5217086 -0.37291217 4294967040
4.5418978 1.5205797 -0.3426255 4294946816
4.7381868 1.572644 -0.31563908 4294959360
5.2320957 1.5518661 -0.36156636 4294948864
5.394269 1.5950937 -0.34739897 4294967040
5.4714632 1.5877604 -0.34539002 4294967040
5.5519533 1.5744891 -0.31768966 4294967040
5.6798944 1.5179498 -0.33058435 4294967040
6.5978513 1.5269237 -0.36234131 4294965504
6.6082335 1.5704966 -0.35800081 4294967040
8.2949066 1.5210069 -0.31822553 4294967040
8.349535 1.545815 -0.3355962 4294967040
8.4306812 1.5541966 -0.39183339 4294966272
8.6736565 1.5865737 -0.39794517 4294962688
8.8553896 1.5501409 -0.38632751 4294953984
9.0546265 1.5701194 -0.39041728 4294962944
9.1910286 1.5388234 -0.34541643 4294967040
9.2174511 1.5365813 -0.3124522 4294967040
9.691927 1.5200195 -0.32486528 4294962176
9.7415667 1.5427487 -0.32704994 4294966272
9.8118382 1.5934279 -0.30043015 4294967040
-4.7362733 1.6201432 -0.35701591 4294962176
4.2183356 1.6610415 -0.32131943 4294959616
4.4536419 1.6544728 -0.35802567 4294950144
4.6870632 1.6245819 -0.37316531 4294960384
5.3945913 1.6222441 -0.32491684 4294967040
5.4357491 1.6236602 -0.3473475 4294967040
5.6785669 1.6069264 -0.38226616 4294967040
5.731833 1.6470907 -0.36428541 4294967040
6.6146598 1.6275663 -0.35917783 4294967040
8.3907681 1.6315644 -0.3352868 4294956032
8.42101 1.6964281 -0.39639676 4294967040
8.6547985 1.6225555 -0.39771634 4294961152
8.759798 1.6703198 -0.39003319 4294966272
8.8624229 1.6539755 -0.38853806 4294953472
8.9320173 1.6219726 -0.38730109 4294952448
9.1889153 1.6083012 -0.36234331 4294967040
9.2669964 1.6422877 -0.31493556 4294967040
9.7693558 1.691136 -0.36101788 4294963200
9.8185444 1.6165878 -0.30318409 4294967040
2.3933079 1.7661076 -0.35994825 4294945024
4.1257858 1.7318816 -0.33551911 4294959872
4.2881861 1.7713015 -0.3384378 4294944512
4.5762048 1.7421632 -0.37604785 4294952192
4.6375079 1.7812746 -0.38938093 4294945536
8.3826599 1.7431656 -0.33101764 4294964992
8.4384251 1.7735147 -0.37517583 4294967040
8.5186138 1.7749354 -0.38465607 4294967040
8.6115093 1.7854278 -0.38122237 4294964480
8.7631254 1.7496806 -0.38741028 4294967040
8.8493042 1.7810557 -0.39135072 4294960128
8.9467354 1.76138 -0.37486255 4294953984
9.0742416 1.7331548 -0.3887333 4294955008
9.2847557 1.7198944 -0.32511657 4294961152
9.3099861 1.7492577 -0.32455051 4294959360
9.8233681 1.7763979 -0.36710161 4294967040
2.3832181 1.8539627 -0.34042066 4294947072
2.406796 1.8741512 -0.38198277 4294947072
4.1108646 1.8923804 -0.33447373 4294951168
4.288507 1.8204119 -0.34443763 4294941184
4.358552 1.8173478 -0.33663943 4294942464
4.5691872 1.8356175 -0.38279048 4294953984
4.7476158 1.8542713 -0.38896969 4294958848
5.2406597 1.8545301 -0.39631772 4294959872
8.4536762 1.8769728 -0.37557095 4294964224
8.5530529 1.8365594 -0.38053343 4294962944
8.646884 1.8123161 -0.37564123 4294966528
8.7256222 1.82182 -0.38747895 4294961152
8.8650932 1.8485587 -0.38321894 4294958336
8.9715338 1.8570174 -0.36092138 4294955520
9.0234766 1.8246025 -0.36166948 4294954240
9.2838974 1.878448 -0.36918703 4294959360
9.3564739 1.8301535 -0.33879739 4294967040
9.5111923 1.8986405 -0.32297423 4294959616
9.6331253 1.8905079 -0.3001225 4294951680
9.8261042 1.8445603 -0.377509 4294967040
-7.3113008 1.9617888 -0.35091314 4280235776
-7.2595229 1.9503734 -0.36204755 4280567296
2.3934197 1.9434628 -0.36115909 4294946816
2.4093544 1.9689211 -0.36426234 4294941952
