# .PCD v0.7 - Point Cloud Data file format
VERSION 0.7
FIELDS x y z rgb
SIZE 4 4 4 4
TYPE F F F U
COUNT 1 1 1 1
WIDTH 1100
HEIGHT 1
VIEWPOINT 0 0 0 1 0 0 0
POINTS 1100
DATA ascii
8.0282402 -2.13815 -0.35122693 4294967040
11.688666 -2.199096 -0.31126639 4294958848
12.380587 -2.1800313 -0.31029958 4294967040
12.441586 -2.1142468 -0.38539848 4294967040
-0.73966479 -2.0749445 -0.31246793 4294931200
-0.65130383 -2.0964782 -0.35861653 4294938368
2.2243605 -2.0466709 -0.36229748 4294929408
2.5437088 -2.0390341 -0.35915917 4294932992
2.6225948 -2.0418069 -0.32024059 4294936576
2.71241 -2.0429652 -0.35388637 4294935808
4.1851797 -2.0870843 -0.38821319 4294945792
4.2717886 -2.0815284 -0.39244366 4294944256
4.336813 -2.0909805 -0.34863836 4294945024
4.4132409 -2.0815372 -0.31427062 4294934272
4.5455456 -2.0607097 -0.32010895 4294937088
4.6527662 -2.0911326 -0.35215998 4294934272
4.7303195 -2.0480945 -0.33061087 4294967040
4.8091478 -2.0805063 -0.36803126 4294952960
4.9343247 -2.0314069 -0.33123145 4294967040
5.026722 -2.0745826 -0.35075989 4294967040
5.6658144 -2.0345421 -0.35154691 4294947072
5.7775378 -2.0337315 -0.34861016 4294957056
5.8083353 -2.0414927 -0.34861284 4294952960
7.1925426 -2.0915051 -0.3824667 4294967040
7.25525 -2.0980222 -0.39157879 4294967040
7.3693519 -2.0991564 -0.33316022 4294962432
7.4567289 -2.0967937 -0.33792812 4294964736
11.024944 -2.0793519 -0.39249206 4294961920
11.476093 -2.0947206 -0.30786073 4294955264
12.382326 -2.0423832 -0.35214174 4294967040
12.42577 -2.0330737 -0.37667441 4294967040
-1.1303599 -1.9496436 -0.33857387 4294935808
2.5681086 -1.9916878 -0.31519938 4294937344
2.6213903 -1.941614 -0.31254873 4294930688
4.3767681 -1.9794767 -0.33388314 4294931712
4.5370445 -1.9630933 -0.32791847 4294928640
4.6433039 -1.9703588 -0.34702486 4294938368
4.8533702 -1.991401 -0.37592387 4294966016
4.9390459 -1.9754403 -0.33351558 4294967040
5.0239019 -1.966525 -0.32241371 4294967040
5.7723827 -1.9459207 -0.35159534 4294939136
5.8270121 -1.9547968 -0.34177577 4294951936
9.323103 -1.9136314 -0.31008595 4294954496
10.574032 -1.9701935 -0.38157973 4294946560
10.783203 -1.9608464 -0.37606448 4294964480
10.900867 -1.9897482 -0.38720733 4294962944
12.134567 -1.9412885 -0.30502763 4294967040
12.412729 -1.9746853 -0.36124229 4294967040
-1.126685 -1.8830848 -0.35887039 4294934016
-0.21319681 -1.8576684 -0.35136461 4294935040
4.8337407 -1.8392181 -0.35638469 4294953984
4.940856 -1.8832741 -0.31748682 4294967040
5.0687704 -1.8391533 -0.30696124 4294967040
5.9210835 -1.8716397 -0.32435447 4294947840
6.0501747 -1.8020358 -0.35337883 4294953728
9.2643652 -1.8803895 -0.36210021 4294961152
10.409014 -1.8730236 -0.39963284 4294942976
10.759961 -1.8762927 -0.37114784 4294967040
10.81825 -1.8251408 -0.39998528 4294956800
11.948324 -1.8254683 -0.32146823 4294967040
12.19416 -1.8600374 -0.32311198 4294967040
12.267759 -1.8470726 -0.32829511 4294967040
12.383657 -1.8313874 -0.37365288 4294967040
12.419029 -1.8899546 -0.37697452 4294967040
-1.1153903 -1.7887564 -0.33611095 4294947328
4.5829697 -1.7282497 -0.33412048 4294955776
4.6660566 -1.7454795 -0.32939714 4294940928
4.8477869 -1.7205558 -0.33274686 4294967040
4.9287643 -1.7292371 -0.32335952 4294967040
5.0046082 -1.7453175 -0.31948292 4294967040
5.1302385 -1.7438354 -0.37870029 4294967040
5.9904451 -1.7693369 -0.3686561 4294961408
6.025918 -1.7539186 -0.39110965 4294962944
6.1304407 -1.7500643 -0.33179343 4294944512
6.6689453 -1.768952 -0.31271958 4294947840
6.7277756 -1.7533844 -0.31767565 4294950656
11.378384 -1.7164567 -0.3094857 4294967040
11.438843 -1.7571142 -0.33186489 4294967040
11.700809 -1.7616783 -0.31940642 4294964992
12.152497 -1.7380681 -0.30699557 4294955520
12.256153 -1.7750272 -0.3511886 4294967040
12.358458 -1.7969332 -0.37117541 4294967040
-1.1240146 -1.6839359 -0.32534873 4294945792
3.7985668 -1.6644431 -0.35534546 4294946816
3.8192205 -1.686008 -0.35989767 4294957824
4.0774632 -1.6570446 -0.31749171 4294962944
4.3426533 -1.6088344 -0.31619769 4294952704
4.7893057 -1.6495223 -0.32593864 4294954752
4.833765 -1.6398759 -0.34078795 4294967040
4.9584188 -1.638522 -0.33602303 4294967040
5.0035067 -1.6121979 -0.30896917 4294967040
6.038496 -1.6396863 -0.37583786 4294965760
6.1445107 -1.6514641 -0.35961699 4294941440
10.775579 -1.6402407 -0.38172445 4294967040
10.816293 -1.6841521 -0.38711315 4294967040
11.293317 -1.6588638 -0.35368186 4294967040
11.302401 -1.6681383 -0.34510565 4294967040
11.992504 -1.6153378 -0.33028775 4294967040
12.156693 -1.6464615 -0.32555169 4294967040
12.261702 -1.6483682 -0.3347052 4294967040
12.367945 -1.6711495 -0.30466217 4294967040
3.7950671 -1.5013621 -0.38069716 4294967040
3.8316591 -1.53708 -0.36086392 4294967040
3.9666955 -1.5799038 -0.32153204 4294967040
4.3338985 -1.5753274 -0.30327627 4294956544
4.9775276 -1.5966967 -0.34147331 4294967040
5.0203562 -1.550796 -0.3606137 4294967040
6.0182357 -1.5198443 -0.36872348 4294959616
6.8617125 -1.5307789 -0.36919031 4294929920
11.256899 -1.5811831 -0.35906681 4294967040
11.336819 -1.5639566 -0.30799592 4294967040
11.48245 -1.5176469 -0.30742639 4294967040
11.506998 -1.5599875 -0.30879453 4294967040
11.687278 -1.5472069 -0.30277351 4294965248
11.730156 -1.5438081 -0.30356571 4294961152
11.937876 -1.5650365 -0.31489015 4294967040
12.033171 -1.5735344 -0.31733614 4294967040
12.184979 -1.5519285 -0.3161034 4294967040
12.25448 -1.5463405 -0.32249561 4294967040
3.8664913 -1.4540172 -0.35001111 4294967040
3.9596505 -1.4183989 -0.36379987 4294967040
4.0492048 -1.4058375 -0.35539511 4294967040
4.1806507 -1.4049206 -0.37155879 4294967040
4.243576 -1.4123741 -0.35741383 4294967040
4.3373528 -1.4952054 -0.31575167 4294967040
4.7378969 -1.4710793 -0.36167684 4294967040
4.9382839 -1.4387581 -0.35267597 4294967040
5.0674114 -1.4197062 -0.31868154 4294967040
5.1525755 -1.466567 -0.36073941 4294950912
5.331346 -1.4111748 -0.37677586 4294945024
5.4194436 -1.4069185 -0.37660536 4294935552
5.7761765 -1.4186931 -0.3524316 4294928384
5.9924726 -1.4300771 -0.3889522 4294967040
6.0120678 -1.4218259 -0.37514788 4294967040
6.104722 -1.4465075 -0.31245947 4294967040
6.7824183 -1.4706941 -0.35172445 4294937344
11.193963 -1.4749932 -0.39248136 4294967040
11.266493 -1.4334422 -0.3442606 4294967040
11.328691 -1.4986901 -0.38838691 4294967040
11.457552 -1.4642668 -0.31235451 4294967040
11.683253 -1.4291101 -0.3353456 4294967040
11.772896 -1.4522741 -0.33327067 4294967040
11.815469 -1.4306568 -0.34056008 4294967040
12.331518 -1.4306743 -0.30697542 4294967040
3.967443 -1.398157 -0.33493084 4294967040
4.0816479 -1.3969498 -0.36840707 4294967040
4.1666346 -1.3938689 -0.35569179 4294967040
4.2164364 -1.3969803 -0.34518883 4294967040
5.059741 -1.3361899 -0.38512045 4294967040
5.1753798 -1.3265703 -0.37819833 4294967040
5.2396479 -1.3251972 -0.37222874 4294952704
5.3445511 -1.3402345 -0.36303803 4294946560
6.0450468 -1.3923786 -0.38586614 4294967040
6.7440605 -1.3682001 -0.35337293 4294957568
11.29642 -1.3706248 -0.34085366 4294967040
11.369588 -1.3600805 -0.33211917 4294967040
11.440922 -1.362605 -0.33344442 4294967040
11.541049 -1.3884304 -0.32892385 4294954240
11.647451 -1.3966839 -0.35516402 4294967040
11.754759 -1.3424227 -0.30729455 4294967040
11.82255 -1.3881731 -0.35815752 4294967040
11.910004 -1.3610823 -0.33509359 4294965504
12.028065 -1.3173844 -0.3568368 4294964992
12.153539 -1.3149934 -0.32788244 4294967040
12.341585 -1.3057709 -0.34334829 4294967040
12.402572 -1.3612344 -0.3098439 4294967040
4.7246361 -1.2534859 -0.37647086 4294966272
4.9559832 -1.2449913 -0.38401616 4294952192
5.0467415 -1.2335789 -0.38844705 4294967040
5.2341261 -1.2806973 -0.37354559 4294965248
6.7310176 -1.2372737 -0.35951799 4294967040
11.585748 -1.2454988 -0.38415805 4294966784
11.673407 -1.254768 -0.37998423 4294967040
11.767715 -1.278981 -0.3340686 4294967040
11.840529 -1.2538283 -0.35322854 4294967040
12.070877 -1.2175601 -0.37637019 4294967040
12.124762 -1.2099025 -0.38197637 4294967040
12.259478 -1.2749183 -0.33788681 4294967040
12.327264 -1.2894347 -0.33728731 4294967040
12.400199 -1.2117703 -0.33347994 4294967040
4.893538 -1.1092691 -0.31111825 4294949120
4.9572377 -1.1151376 -0.32883674 4294967040
5.0574317 -1.1614816 -0.3818208 4294967040
5.2869086 -1.1481823 -0.3687149 4294961664
5.3153715 -1.135345 -0.36106485 4294959616
6.7352886 -1.1313249 -0.35349217 4294967040
11.677081 -1.1569067 -0.38476002 4294967040
11.78447 -1.1431862 -0.36493051 4294967040
11.824661 -1.1676846 -0.32450399 4294967040
11.993837 -1.1656539 -0.31100315 4294967040
12.040817 -1.1619997 -0.30937397 4294967040
12.112265 -1.1377642 -0.36560404 4294962432
12.249968 -1.1066375 -0.32353568 4294966784
12.352163 -1.1804496 -0.3621842 4294967040
4.7385621 -1.0654886 -0.37711632 4294967040
4.8788037 -1.095644 -0.31251067 4294960896
4.9473033 -1.0443362 -0.34413028 4294967040
5.0510111 -1.073904 -0.31391555 4294967040
5.1670179 -1.0657122 -0.38907692 4294961920
5.2914829 -1.0551815 -0.37789327 4294955776
6.6954379 -1.015609 -0.38280529 4294967040
6.7395697 -1.0883843 -0.35584357 4294967040
11.690847 -1.0222795 -0.37499616 4294967040
11.772767 -1.0367101 -0.33756724 4294967040
11.971209 -1.0124936 -0.37138847 4294967040
12.045224 -1.0267545 -0.39311558 4294967040
12.138512 -1.0794306 -0.34234595 4294967040
12.240425 -1.0742841 -0.33791906 4294967040
12.345482 -1.0725305 -0.33316034 4294967040
12.405672 -1.0615886 -0.32233483 4294967040
4.7918243 -0.96491796 -0.34345424 4294959360
4.8900762 -0.95273697 -0.30846012 4294967040
4.9119205 -0.96357656 -0.30540144 4294967040
5.0556126 -0.94346619 -0.3745628 4294967040
6.7340155 -0.91708028 -0.34276617 4294967040
11.69663 -0.93885273 -0.32236111 4294967040
11.739376 -0.96039653 -0.38476861 4294967040
11.863696 -0.96981698 -0.38144898 4294967040
12.376762 -0.98803926 -0.35617793 4294967040
12.418177 -0.9925797 -0.35682508 4294967040
4.7914577 -0.88665551 -0.36865517 4294965504
4.8967533 -0.80120468 -0.37709513 4294967040
4.9898314 -0.84590042 -0.31885433 4294967040
5.0559311 -0.86533552 -0.37291211 4294967040
5.2699995 -0.80965507 -0.37661195 4294957312
6.7457952 -0.86861908 -0.34993547 4294967040
11.714911 -0.87056237 -0.32660437 4294967040
12.347721 -0.89147389 -0.30269039 4294967040
4.7730646 -0.71781963 -0.36664832 4294967040
4.8471088 -0.77871215 -0.37160748 4294967040
4.9778638 -0.7656014 -0.35681164 4294967040
5.0540838 -0.74719441 -0.37002254 4294967040
5.2434616 -0.74366951 -0.37763619 4294958848
6.6880331 -0.70641512 -0.30792439 4294967040
6.7404957 -0.75054371 -0.32225424 4294967040
11.684446 -0.75379467 -0.30256879 4294967040
11.765545 -0.70564181 -0.34833676 4294967040
11.849016 -0.70187217 -0.32404143 4294967040
12.382929 -0.71230835 -0.30786419 4294967040
12.404421 -0.7607584 -0.36419022 4294967040
4.6940269 -0.69286096 -0.37630811 4294967040
4.7377872 -0.69390249 -0.3746776 4294967040
4.8369336 -0.69655395 -0.36523372 4294967040
4.9867144 -0.64196044 -0.38267833 4294967040
5.0485058 -0.65840077 -0.36733693 4294967040
5.1825643 -0.67932504 -0.37655801 4294962432
6.6814175 -0.69217837 -0.32531944 4294967040
11.693852 -0.68028069 -0.32560793 4294967040
11.75869 -0.63503587 -0.36977181 4294967040
11.86907 -0.61319578 -0.3659929 4294967040
11.913063 -0.62130201 -0.31248611 4294967040
12.052313 -0.63148147 -0.34206495 4294967040
12.291512 -0.69326061 -0.31358653 4294967040
12.395163 -0.65315342 -0.35398021 4294967040
12.412518 -0.61558723 -0.33370468 4294967040
6.6883745 -0.52901578 -0.33710736 4294967040
6.7451077 -0.52862555 -0.32825175 4294967040
11.783221 -0.51482779 -0.36588734 4294967040
11.893299 -0.52478158 -0.31107646 4294967040
11.932434 -0.56063068 -0.35363728 4294967040
12.057625 -0.57904989 -0.31165734 4294967040
12.126873 -0.56077695 -0.35613298 4294967040
12.25366 -0.52782482 -0.34524453 4294967040
12.364808 -0.57083273 -0.31630915 4294967040
12.403464 -0.56385827 -0.3230193 4294967040
11.780733 -0.4190785 -0.38703904 4294967040
11.87857 -0.46242431 -0.3736237 4294967040
11.906948 -0.47201288 -0.31824568 4294967040
12.083499 -0.44644922 -0.31624827 4294964224
12.123735 -0.4797073 -0.35632503 4294967040
12.233498 -0.46250618 -0.3627291 4294952192
12.376657 -0.48829949 -0.3187018 4294967040
12.405583 -0.40949088 -0.33165333 4294967040
10.589894 -0.30931309 -0.38730824 4294954240
10.710905 -0.35082412 -0.39314827 4294967040
10.935863 -0.36821163 -0.39858085 4294967040
11.78443 -0.36616021 -0.38127935 4294967040
11.877295 -0.3865335 -0.36581141 4294967040
11.991152 -0.32420087 -0.34909272 4294967040
12.041266 -0.31193596 -0.36643499 4294967040
12.157509 -0.34560746 -0.32579607 4294967040
12.392756 -0.36469752 -0.31888145 4294967040
12.408519 -0.36961308 -0.3192721 4294967040
5.0140061 -0.21186703 -0.38881433 4294967040
10.630045 -0.2896378 -0.38461274 4294967040
10.761992 -0.26443782 -0.36184472 4294967040
10.856407 -0.23836619 -0.34638622 4294967040
10.932711 -0.21757168 -0.35590649 4294967040
11.027103 -0.22038272 -0.35403183 4294967040
11.147137 -0.21013485 -0.36439613 4294967040
11.235855 -0.22871278 -0.36204016 4294967040
11.340727 -0.22742535 -0.37732467 4294967040
11.59031 -0.25568056 -0.36623177 4294967040
11.641901 -0.26251256 -0.3854973 4294967040
11.777636 -0.20855567 -0.35935953 4294967040
11.878093 -0.29158574 -0.36130673 4294967040
11.979856 -0.2655049 -0.30698374 4294967040
12.030936 -0.28876549 -0.31724831 4294967040
12.184195 -0.26058125 -0.33194923 4294967040
12.244518 -0.24772151 -0.37668067 4294967040
12.363035 -0.2315024 -0.32627481 4294967040
12.413669 -0.21027282 -0.32847676 4294967040
10.85592 -0.19516674 -0.39745414 4294967040
10.921971 -0.18923175 -0.37784004 4294967040
11.060932 -0.19200878 -0.39799619 4294967040
11.15345 -0.19617519 -0.36124671 4294967040
11.232263 -0.17099886 -0.36663514 4294967040
11.787099 -0.1123538 -0.36058038 4294967040
11.832232 -0.17536579 -0.30245328 4294967040
11.970169 -0.15369251 -0.32434523 4294967040
12.0714 -0.13964182 -0.32030922 4294967040
12.145083 -0.14991513 -0.32393011 4294967040
12.277185 -0.19281459 -0.35491002 4294967040
12.336918 -0.19554862 -0.31222561 4294967040
12.415569 -0.19703618 -0.33235845 4294967040
11.79652 -0.027268071 -0.36952585 4294967040
11.80926 -0.020420158 -0.35601026 4294967040
11.9853 -0.017679501 -0.32052693 4294967040
12.04301 -0.033838451 -0.30626309 4294967040
12.275707 -0.033818759 -0.31774727 4294942976
12.377713 -0.064717665 -0.32222188 4294967040
12.405214 -0.073980793 -0.31458408 4294967040
-2.062382 0.041825429 -0.39734235 4294967040
11.793495 0.018878512 -0.35280293 4294967040
11.806673 0.017493613 -0.36836889 4294967040
11.944708 0.0080405511 -0.33920678 4294967040
12.016292 0.0029247815 -0.32302442 4294967040
12.372026 0.0086323181 -0.31186238 4294967040
12.40149 0.061032351 -0.30666631 4294967040
-2.0710292 0.16953577 -0.3944805 4294967040
11.74475 0.18741241 -0.34944522 4294967040
11.843866 0.19057763 -0.34863755 4294967040
11.934692 0.17542994 -0.38412851 4294967040
12.079643 0.17764935 -0.37172839 4294967040
12.107268 0.19167152 -0.33654365 4294967040
12.287613 0.14484102 -0.32363996 4294967040
12.384176 0.13597199 -0.33347136 4294967040
12.412256 0.12547931 -0.32996726 4294967040
-2.0737598 0.26875395 -0.39174068 4294967040
11.005961 0.23039803 -0.39816472 4294967040
11.692535 0.2051603 -0.38912117 4294967040
11.711723 0.22877929 -0.35039061 4294967040
11.890497 0.21579489 -0.33290964 4294967040
11.916272 0.21828936 -0.30577707 4294967040
12.048532 0.20989224 -0.33425546 4294967040
12.169943 0.23561463 -0.30483341 4294967040
12.271277 0.27113059 -0.36497524 4294967040
12.386738 0.22230174 -0.35309654 4294967040
12.412052 0.28180218 -0.35821521 4294967040
-2.0437376 0.31634825 -0.38850468 4294967040
-1.9408684 0.37816352 -0.38179854 4294967040
11.672524 0.32800812 -0.39123708 4294967040
11.714602 0.35807359 -0.33927524 4294967040
11.856178 0.32497168 -0.35544688 4294967040
12.224978 0.33444193 -0.31309694 4294964480
12.385192 0.3200497 -0.34052506 4294967040
12.414192 0.31678078 -0.32270485 4294967040
-1.943526 0.45297867 -0.38130993 4294967040
10.760155 0.49304882 -0.30291009 4294967040
10.844481 0.49543223 -0.3604604 4294967040
11.745295 0.42463988 -0.35327733 4294967040
11.880917 0.45984724 -0.35842192 4294967040
11.955444 0.47646046 -0.33285481 4294967040
12.082008 0.48637104 -0.37782884 4294967040
12.119581 0.49343851 -0.35388088 4294967040
12.212132 0.48849556 -0.30749881 4294967040
12.334412 0.48833239 -0.32247949 4294966784
-1.9471171 0.53859031 -0.38047844 4294967040
10.792555 0.56787395 -0.35058761 4294967040
10.861585 0.57205641 -0.36396465 4294967040
10.945417 0.59260952 -0.37262085 4294967040
11.682617 0.54211503 -0.33703521 4294967040
11.797445 0.50910461 -0.38668245 4294967040
11.866024 0.5494591 -0.31976897 4294967040
11.977474 0.53547084 -0.31841451 4294967040
12.02557 0.52110195 -0.32845914 4294967040
12.109941 0.51829153 -0.33535901 4294967040
12.257988 0.52867723 -0.30808139 4294967040
12.306005 0.51489878 -0.33949399 4294967040
-1.9458433 0.65240765 -0.37848136 4294967040
2.1189451 0.6858148 -0.39962384 4294967040
10.789228 0.60708499 -0.36802599 4294967040
10.841266 0.60659528 -0.35160473 4294967040
10.987567 0.62647456 -0.35308731 4294967040
11.093477 0.67590082 -0.37263161 4294967040
11.121553 0.69174802 -0.3577711 4294967040
11.340005 0.65948677 -0.36745918 4294966784
11.428568 0.63333035 -0.37834734 4294965760
11.686275 0.61541861 -0.33461034 4294967040
11.739832 0.63129139 -0.37250406 4294967040
11.867907 0.69268501 -0.34993964 4294967040
12.235352 0.61106724 -0.30624336 4294967040
-1.9457426 0.74323577 -0.37367731 4294967040
-1.8693781 0.73109961 -0.35829881 4294967040
2.1592224 0.79366314 -0.39853951 4294967040
2.4771237 0.72353941 -0.38543767 4294954752
4.5809374 0.71407342 -0.35346442 4294967040
4.6589851 0.76063389 -0.37084538 4294967040
4.7445335 0.76999581 -0.36568516 4294967040
4.8336506 0.78245163 -0.36542326 4294967040
4.9512353 0.75407511 -0.34780309 4294967040
5.0117722 0.75718653 -0.36445278 4294967040
9.2948074 0.78888094 -0.32623637 4294967040
9.3130951 0.79138768 -0.32253784 4294967040
10.389317 0.79226375 -0.3062757 4294967040
10.428986 0.79795849 -0.32266736 4294967040
11.074659 0.7051307 -0.35045254 4294967040
11.167545 0.72549284 -0.36713862 4294967040
11.226282 0.76056027 -0.35052422 4294967040
11.693709 0.78318053 -0.36457807 4294967040
11.718843 0.77353489 -0.35860109 4294967040
11.838114 0.78479278 -0.31636447 4294967040
11.917771 0.76986921 -0.32273391 4279765504
12.04825 0.79084158 -0.33800811 4294958848
-1.9546678 0.85832942 -0.36848173 4294967040
2.1497021 0.86241519 -0.39702475 4294967040
4.5615659 0.81832939 -0.39621973 4294967040
4.6678052 0.80970955 -0.38564739 4294967040
4.7157841 0.81179625 -0.38215137 4294967040
4.9455872 0.82612616 -0.35098466 4294967040
9.1905556 0.83308196 -0.32265198 4294967040
9.2758408 0.8468104 -0.39189157 4294967040
9.3069172 0.84665662 -0.37278295 4294967040
9.4775486 0.864371 -0.3655273 4294954240
10.385065 0.81204313 -0.38021892 4294967040
10.489776 0.85187972 -0.39831796 4294967040
10.508666 0.85901761 -0.39892113 4294967040
11.177282 0.84027719 -0.36869648 4294967040
11.285515 0.81817579 -0.37450123 4294967040
11.348295 0.83437669 -0.37630326 4294967040
11.419964 0.8939991 -0.32660276 4294967040
11.689114 0.80188155 -0.34826744 4294967040
11.775242 0.82023668 -0.32246459 4294967040
11.850603 0.8536455 -0.31596643 4294967040
11.944345 0.85602832 -0.31166628 4292726784
12.106375 0.89654255 -0.31254089 4294947840
-1.9605327 0.94065809 -0.36483628 4294967040
2.1578307 0.94467187 -0.39645356 4294967040
4.6193614 0.93574035 -0.3474113 4294967040
4.8560858 0.9691267 -0.36888552 4294955520
4.9331532 0.9216463 -0.35422593 4294961408
9.3368282 0.90314072 -0.33049157 4294967040
10.495659 0.97918689 -0.39202318 4294967040
10.514348 0.98798209 -0.35539809 4294967040
10.654575 0.91037488 -0.33879605 4294955008
11.164775 0.97476244 -0.33631504 4294967040
11.38431 0.93803751 -0.32536525 4294967040
11.479625 0.91655177 -0.32972339 4294967040
11.544362 0.94621241 -0.3568418 4294967040
12.095839 0.94626808 -0.31443664 4294936064
12.147358 0.97654557 -0.31731251 4294958592
-2.0022056 1.0890405 -0.34927145 4294967040
-1.9551537 1.037823 -0.36205882 4294967040
2.0902615 1.0113422 -0.39922807 4294961920
2.1652441 1.0356107 -0.39391956 4294964480
2.6706312 1.0688603 -0.36322367 4294967040
2.7087374 1.0680599 -0.36473876 4294967040
4.6218581 1.0053153 -0.35378549 4294967040
4.8450451 1.0198382 -0.36587635 4294225920
4.924242 1.0590305 -0.35952014 4294957824
6.6912389 1.0503926 -0.36738363 4294967040
6.7338476 1.0913829 -0.34038082 4294967040
6.8214478 1.0905463 -0.32008052 4294965504
9.2784967 1.04276 -0.38644242 4294967040
9.3550215 1.0611875 -0.35322109 4294967040
9.4507008 1.0649292 -0.32248268 4294967040
9.516799 1.061533 -0.36595762 4294967040
9.6381054 1.05391 -0.37334001 4294967040
9.7360535 1.0670359 -0.32251346 4294967040
9.8281326 1.0799298 -0.35378647 4294967040
9.9877996 1.0837669 -0.36337495 4294966784
10.085426 1.0919892 -0.39186198 4294967040
10.174609 1.0967267 -0.39117825 4294967040
10.269089 1.0968156 -0.39504188 4294967040
10.35289 1.0971048 -0.38889152 4294967040
10.485131 1.0903733 -0.33209676 4294967040
10.528086 1.043267 -0.36240792 4294967040
11.269723 1.0728421 -0.35248622 4294967040
11.387238 1.0667082 -0.33428574 4294967040
11.483438 1.0677118 -0.35131413 4294967040
11.52642 1.0208292 -0.35295397 4294967040
11.622682 1.0210109 -0.36317575 4294967040
12.095244 1.0584306 -0.36438572 4294967040
12.189234 1.0245996 -0.31900406 4294967040
12.208092 1.0611739 -0.3128792 4294967040
-2.1034377 1.1871228 -0.35652351 4294967040
-2.0657995 1.1392086 -0.36188078 4294967040
-1.8648182 1.1776803 -0.34611243 4294955264
2.1638718 1.1336701 -0.39254874 4294967040
2.6884329 1.1721367 -0.37769806 4294967040
2.7384601 1.1548135 -0.36014733 4294967040
3.0338745 1.1855619 -0.36696163 4294937088
4.6049557 1.1620805 -0.35569546 4294967040
4.8233137 1.1327162 -0.36797047 4294952960
4.9354939 1.1402936 -0.36323762 4294944768
6.6786118 1.1593194 -0.35950583 4294967040
6.7412262 1.1132123 -0.3371813 4294967040
6.9278784 1.109068 -0.36016375 4294967040
7.0376291 1.1404579 -0.35317582 4294964736
7.5629058 1.1570587 -0.32888567 4294967040
9.2917128 1.1529746 -0.32568583 4294967040
9.3209305 1.168249 -0.32789856 4294967040
9.4528532 1.1050286 -0.37690744 4294965248
9.5628262 1.1227412 -0.36909473 4294967040
9.656846 1.1190934 -0.36390787 4294967040
9.7749901 1.1179481 -0.37230933 4294967040
9.871398 1.1183913 -0.37470347 4294967040
9.9793358 1.12403 -0.3601971 4294956288
10.055814 1.1382133 -0.32760155 4294952192
10.170332 1.104674 -0.32440072 4294967040
10.267305 1.1084338 -0.32360274 4294967040
10.386145 1.1055114 -0.32559612 4294967040
10.453525 1.1065483 -0.34836969 4294967040
10.512938 1.1122843 -0.31539917 4294967040
10.627506 1.1843598 -0.3100464 4294967040
11.275149 1.1291929 -0.37648177 4294955776
11.38204 1.1709566 -0.33484828 4294967040
11.479374 1.1403825 -0.35196522 4294967040
11.530863 1.1806276 -0.35600945 4294967040
12.089897 1.1108042 -0.34491339 4294967040
-2.1083155 1.2341928 -0.36090165 4294967040
-2.0852087 1.255262 -0.35726213 4294967040
-1.9833307 1.212965 -0.35501629 4294937856
2.0741253 1.2369819 -0.39474574 4294962432
2.138845 1.2121522 -0.38949221 4294967040
2.6659827 1.2172449 -0.35957664 4294967040
2.7340484 1.2380923 -0.35771686 4294967040
2.8164482 1.2869539 -0.36417922 4294967040
4.60183 1.2707049 -0.35399023 4294964992
4.8916922 1.2477863 -0.36676648 4294936064
4.9254417 1.2256572 -0.36337084 4294940416
6.5908756 1.2277421 -0.31803501 4294967040
6.6860237 1.2035897 -0.35844025 4294967040
6.773386 1.2597287 -0.31810844 4294967040
6.825911 1.2768714 -0.30542737 4294967040
6.9285674 1.2747551 -0.3238444 4294967040
8.074955 1.2876613 -0.38756222 4294967040
8.1763248 1.2937822 -0.36635482 4294967040
8.2548952 1.2739347 -0.34740567 4294967040
8.3213463 1.2951699 -0.35309827 4294959616
8.4435654 1.2907195 -0.37843204 4294952960
8.5604792 1.2797599 -0.32604003 4294967040
8.6608505 1.2680197 -0.36020011 4294967040
8.7551613 1.2621155 -0.35149357 4294967040
8.8584509 1.2689883 -0.34799972 4294967040
8.9207363 1.2952904 -0.37886301 4294941696
9.1954365 1.2908225 -0.3656725 4294967040
9.2692842 1.2901485 -0.35957754 4294967040
9.3139915 1.2427634 -0.38100678 4294967040
9.6741629 1.2610136 -0.33334705 4294967040
9.7560463 1.2340716 -0.33476168 4294967040
9.9247894 1.2885339 -0.33721682 4294959104
10.12409 1.2409084 -0.32758409 4294967040
10.235706 1.2553226 -0.35686314 4294967040
10.369008 1.2204642 -0.31204224 4294967040
10.41437 1.2033489 -0.32153898 4294967040
10.658764 1.2436138 -0.31390077 4294967040
11.375736 1.2089584 -0.32309359 4294967040
11.435398 1.2459018 -0.31879881 4294967040
11.565222 1.2744148 -0.36040109 4294967040
11.621161 1.2881116 -0.36394042 4294967040
11.703267 1.2794342 -0.37954867 4294967040
11.927502 1.2391682 -0.37244397 4294945536
12.096931 1.2509315 -0.31296742 4294951424
12.112623 1.2451696 -0.32090509 4294958592
12.255698 1.2016369 -0.3020241 4294967040
-2.1042929 1.3526289 -0.35866517 4294967040
-2.0841417 1.3523817 -0.35661554 4294967040
2.6860828 1.3125457 -0.35683221 4279109120
2.7290072 1.3277278 -0.35772693 4294949376
2.8242245 1.3578477 -0.34844622 4294935040
2.956809 1.3852229 -0.35791624 4294934016
4.0898294 1.3921933 -0.31957325 4294967040
4.1109467 1.3990402 -0.31458178 4294967040
4.6052141 1.3580499 -0.35421264 4294967040
4.798511 1.316607 -0.38120732 4294931968
4.8582687 1.3199201 -0.38041693 4294937344
6.8821745 1.3093301 -0.36306262 4294967040
6.9450192 1.3226063 -0.32182968 4294967040
7.0264416 1.3574835 -0.34239236 4293699840
7.8870888 1.3339101 -0.31582659 4294967040
7.9731407 1.3737543 -0.35356122 4294967040
8.0193443 1.3365018 -0.32594013 4294967040
8.1787882 1.3531653 -0.3496033 4294967040
8.3392868 1.3134191 -0.34352577 4294950656
8.4620552 1.3164988 -0.33511364 4294961408
8.5477839 1.3227446 -0.35249281 4294967040
8.6458635 1.3359786 -0.33289498 4294967040
9.0720329 1.3081669 -0.3673591 4294967040
9.1662111 1.323591 -0.35963452 4294967040
9.2633057 1.3342056 -0.36116731 4294967040
9.3187494 1.3369122 -0.31167477 4294967040
9.7206974 1.3723056 -0.30245021 4294967040
9.828392 1.3557556 -0.31895119 4294967040
9.9424286 1.3577893 -0.3155629 4294967040
10.031946 1.3404651 -0.32654929 4294967040
10.173784 1.3791527 -0.32176733 4294967040
10.254528 1.3171401 -0.34062099 4294967040
10.362682 1.3618364 -0.323181 4294967040
10.419282 1.3254856 -0.32676506 4294967040
10.771385 1.3820758 -0.34469807 4294967040
11.468014 1.3558626 -0.31096789 4294967040
11.583708 1.3414781 -0.36354691 4294967040
11.633106 1.3339453 -0.37085477 4294967040
12.090838 1.3241193 -0.31248432 4294948352
12.151794 1.3843634 -0.32802945 4294960384
-2.1205385 1.4306998 -0.35129374 4294967040
-2.0966477 1.4162925 -0.34618372 4294967040
2.8542573 1.4261425 -0.37657055 4294934016
2.965234 1.4171391 -0.34450635 4294932224
4.0502996 1.4904705 -0.34474552 4294967040
4.1344194 1.4097426 -0.34532666 4294967040
4.2815304 1.4527745 -0.31975147 4294967040
4.3240643 1.4655743 -0.32182521 4294967040
4.4036379 1.4944799 -0.32849362 4294967040
4.5991669 1.4951633 -0.3717913 4294967040
4.6495581 1.4859517 -0.35410279 4294967040
4.8669758 1.4691162 -0.37705183 4294949632
4.9377146 1.4407378 -0.36617863 4294950144
6.3729544 1.4913316 -0.37293586 4294952192
6.587626 1.4859273 -0.31676784 4294967040
6.9648223 1.4282004 -0.34285992 4294944256
7.0215483 1.4748511 -0.35612807 4294950912
7.993978 1.4190984 -0.36098695 4294967040
8.0210724 1.4277978 -0.36620852 4294967040
8.1801357 1.4035718 -0.3537001 4294967040
8.2083073 1.4341348 -0.33846891 4294957568
8.3399887 1.4355395 -0.32521716 4294954240
8.5176239 1.4347141 -0.3643122 4294962688
8.9643974 1.4609669 -0.37603021 4294962688
9.0654116 1.4669584 -0.38455617 4294967040
9.1572294 1.4204789 -0.3976748 4294967040
9.2406292 1.4908124 -0.3886658 4294967040
11.559679 1.4666361 -0.35801339 4294967040
11.677267 1.447521 -0.36194599 4294967040
11.713369 1.4686195 -0.30211613 4294967040
12.091773 1.4192865 -0.39921957 4294960384
12.15519 1.4218141 -0.35446686 4294967040
12.268759 1.4843247 -0.33343911 4294967040
12.30133 1.4892077 -0.33739829 4294967040
-2.117209 1.5178407 -0.33244592 4294967040
2.7465677 1.5428346 -0.3512412 4294935040
2.8480902 1.5867234 -0.30365941 4294932736
3.8854239 1.5748796 -0.31987509 4294953728
3.9438715 1.553293 -0.33915523 4294961152
4.0539312 1.556293 -0.36266428 4294963712
4.436924 1.5042375 -0.33094519 4294967040
4.5942512 1.5020831 -0.37856692 4294967040
4.6114216 1.512621 -0.36152613 4294967040
4.8566928 1.5023044 -0.38095206 4294946816
4.9363108 1.5245368 -0.36745876 4294952192
6.1842947 1.5413668 -0.35528326 4294939904
6.2817507 1.5477846 -0.35554224 4294967040
6.3259091 1.5120181 -0.35478941 4294965504
6.4724107 1.5204024 -0.36161008 4294953216
6.5137424 1.547644 -0.34644762 4294967040
6.6395693 1.5315645 -0.31858248 4294965504
6.8666611 1.581105 -0.3307468 4294957824
6.9497175 1.5611554 -0.35946971 4294948608
7.0641208 1.5321831 -0.34431955 4294946816
7.1065645 1.5205681 -0.34701443 4294945024
9.2421036 1.5195254 -0.37816289 4294966272
10.785643 1.5162525 -0.36382458 4294967040
10.807405 1.5612335 -0.36200631 4294958848
11.67762 1.5597649 -0.33362126 4294967040
11.731138 1.5707855 -0.35250551 4294967040
12.136985 1.5045633 -0.39759457 4294967040
12.248001 1.5241992 -0.32273632 4294967040
12.38755 1.5515683 -0.30281121 4294967040
-2.2195356 1.6386015 -0.34724194 4294967040
-2.1469421 1.6615605 -0.34644222 4294967040
3.8784528 1.6595063 -0.32390991 4294952448
3.9283817 1.643564 -0.34317622 4294946048
4.0794268 1.6597555 -0.37356022 4294967040
4.1370258 1.6729789 -0.38270003 4294967040
4.224649 1.6678333 -0.39238167 4294956032
4.8805065 1.6538751 -0.37277678 4294967040
4.9297552 1.6542968 -0.37353402 4294967040
5.0699024 1.6737585 -0.36493319 4294965248
6.6925073 1.646834 -0.32893598 4291475200
6.7092028 1.662604 -0.36697137 4292264192
6.8462648 1.6074049 -0.35642749 4294946048
6.910028 1.6461505 -0.36760306 4292387072
7.9778442 1.6585805 -0.30673337 4294967040
8.0424299 1.6829898 -0.35126168 4294967040
10.401328 1.6997174 -0.39731851 4294966528
10.863503 1.6154449 -0.30382794 4294967040
11.761008 1.6442395 -0.36431694 4294967040
12.370172 1.6462023 -0.31683066 4294967040
-2.113616 1.7657801 -0.33408555 4294967040
-2.0871248 1.7383798 -0.34162462 4294967040
4.8843594 1.7561369 -0.3574304 4294967040
4.9391694 1.7301731 -0.37260374 4294967040
6.6859932 1.7137552 -0.37931004 4285618176
6.7211752 1.7460383 -0.33620471 4286671360
7.0528469 1.7702737 -0.30461037 4294934784
7.950036 1.7153841 -0.33776832 4294967040
8.0518656 1.7619464 -0.35615641 4294963712
8.1166039 1.7602257 -0.31705967 4294966272
9.1173992 1.7907093 -0.34586036 4294967040
10.318234 1.7588613 -0.39146227 4294967040
10.89948 1.7301623 -0.36579886 4294967040
10.909859 1.7167959 -0.33018318 4294967040
11.133354 1.78052 -0.39789197 4294967040
11.315676 1.7786632 -0.39121521 4294703616
11.785307 1.7465858 -0.364806 4294967040
11.808777 1.7522035 -0.37980711 4294967040
12.38129 1.7232966 -0.30601943 4294967040
-2.6400647 1.8947334 -0.37237239 4294967040
-2.5285449 1.8752606 -0.35047728 4294967040
-2.4896424 1.863126 -0.39051703 4294967040
-2.1079979 1.8148599 -0.33187464 4294967040
3.9144979 1.8477911 -0.30577165 4294947072
4.1619058 1.8735439 -0.34361941 4294953472
4.895978 1.8647429 -0.35174435 4294967040
4.9684801 1.8392007 -0.37143499 4294967040
6.7768302 1.8813455 -0.37951589 4287523072
6.808115 1.8161737 -0.38809243 4286272256
9.0951023 1.8060474 -0.34201619 4294967040
9.1297121 1.8168895 -0.34136301 4294967040
10.968139 1.8703755 -0.3660326 4294967040
11.166855 1.8180672 -0.39436722 4294967040
11.2274 1.8184599 -0.38655514 4294967040
11.334836 1.8754251 -0.39393127 4294967040
11.467529 1.8219417 -0.39717543 4294967040
11.861747 1.8833334 -0.37946999 4294967040
12.376104 1.8101828 -0.32942075 4294967040
-2.7215738 1.9600062 -0.38467482 4294967040
-2.6386805 1.9854308 -0.34583759 4294967040
-2.5711985 1.942171 -0.32195383 4294967040
-2.4856157 1.9779661 -0.31509021 4294967040
-2.1316113 1.9120057 -0.31678122 4294967040
-1.8751278 1.9836653 -0.3634463 4294951424
-1.779971 1.978698 -0.33509389 4294950400
4.1149449 1.9631244 -0.33378017 4294935040
4.8899503 1.9444966 -0.35900313 4294967040
6.6932187 1.9982684 -0.3137604 4289561088
6.7562208 1.916369 -0.38480431 4287850752
9.2542992 1.984853 -0.31994504 4294948608
10.982033 1.9192977 -0.37145478 4294966528
11.224842 1.9488099 -0.39491707 4294967040
11.788913 1.9186103 -0.32349163 4294957824
11.894465 1.9382458 -0.36541581 4294967040
11.918888 1.9675875 -0.36217722 4294966784
-2.8187275 2.0700588 -0.30082941 4294967040
-2.7802343 2.0433226 -0.30162251 4294967040
-2.6304598 2.0841241 -0.38375914 4294967040
-2.5980499 2.0854464 -0.36958945 4294967040
-1.9334939 2.0627356 -0.34448129 4294952192
-1.7177491 2.0452509 -0.35263097 4294967040
-1.6211402 2.0393205 -0.33501923 4294967040
-1.5276057 2.0788186 -0.33463439 4294952960
-1.4962687 2.0992393 -0.33911803 4294942464
2.2858348 2.0943894 -0.33358079 4294967040
2.3193412 2.0907393 -0.31959236 4294967040
4.0582037 2.0073197 -0.30187944 4294940928
4.8709254 2.0791702 -0.35528293 4294967040
4.9720888 2.0430908 -0.35973451 4294950912
6.207325 2.0290174 -0.35941809 4294943744
6.6968212 2.0690651 -0.32103544 4289232640
6.7119379 2.0458269 -0.3175019 4289232640
7.233943 2.074687 -0.34287062 4294945792
8.4747353 2.0549281 -0.37620312 4294966272
8.5636606 2.0280161 -0.38071072 4294941696
9.2657471 2.0387545 -0.36980543 4294966528
10.354361 2.0654988 -0.31312412 4294967040
11.041519 2.0512357 -0.37200105 4294965760
11.340754 2.0856986 -0.39825618 4294967040
11.880327 2.0898695 -0.33055407 4294967040
11.960945 2.0727711 -0.34867054 4294967040
-2.7656155 2.1577268 -0.30450937 4294954752
-2.6125309 2.1393511 -0.39072844 4294967040
-2.5658541 2.1841412 -0.31624353 4294967040
-1.9580864 2.1284752 -0.36389321 4294950912
-1.5215492 2.1019056 -0.33893731 4294935808
-1.4319301 2.137291 -0.3483265 4294948096
-1.3361518 2.180325 -0.34306809 4294967040
2.0785613 2.1763425 -0.3408539 4294945792
2.1467669 2.1637387 -0.35658884 4294938112
2.3572159 2.1909771 -0.36962444 4294967040
2.4676337 2.1874855 -0.34219933 4294967040
2.5360992 2.196058 -0.34873259 4294967040
3.996242 2.1383662 -0.35344911 4294935808
4.0531716 2.1403162 -0.35115817 4294937600
4.1346455 2.1347938 -0.35496223 4294945792
4.8785448 2.1139762 -0.34202191 4294950400
4.9832687 2.1389241 -0.37785566 4294941184
6.1837087 2.1465561 -0.35100573 4294945536
6.6950068 2.1116793 -0.32097125 4290215168
6.7041221 2.1003129 -0.31967932 4289034752
7.2468376 2.1672182 -0.34645033 4294949632
7.6743689 2.1765201 -0.30305099 4294967040
7.7107687 2.179009 -0.31039727 4294967040
7.8419499 2.1885774 -0.30436087 4294965760
9.283987 2.1267271 -0.35443062 4294967040
9.3020086 2.1975472 -0.30094498 4294967040
10.291838 2.1085584 -0.30185321 4294962176
10.37839 2.1101923 -0.31208056 4294967040
11.064543 2.1393151 -0.38891083 4294964992
11.336558 2.1568112 -0.39698541 4294967040
11.458628 2.1850023 -0.38838613 4294967040
11.508088 2.1972954 -0.38557249 4294967040
11.634706 2.1456594 -0.34560728 4294932480
11.746843 2.1708126 -0.34288147 4294946560
11.888993 2.1075191 -0.33174458 4294967040
11.943447 2.1540012 -0.33702117 4294963968
-2.5438988 2.2823491 -0.33996853 4294967040
-2.2181277 2.2573686 -0.33288229 4294967040
-2.1456871 2.2649016 -0.34818479 4294967040
-2.0645618 2.222229 -0.34878761 4294967040
-1.4276762 2.2589645 -0.34865248 4294959872
-1.3549649 2.2366931 -0.35676914 4294967040
-1.2239714 2.2726624 -0.33928075 4294954752
-1.1630104 2.2669306 -0.36226484 4294963200
2.0643334 2.2147121 -0.33745363 4294952960
2.1371231 2.2307172 -0.34039482 4294967040
2.2548375 2.2310848 -0.33163327 4294967040
2.3763082 2.2222137 -0.32810563 4294967040
2.4418693 2.2230358 -0.34696925 4294967040
2.5150898 2.2196243 -0.37216657 4294967040
2.6399174 2.2147288 -0.37600935 4294967040
2.7183602 2.2098527 -0.35711241 4294967040
4.8925133 2.2792125 -0.34143832 4294964480
4.9017506 2.2764111 -0.34769267 4294967040
6.1653457 2.2520599 -0.35029775 4294950656
7.014451 2.2835276 -0.30260056 4294941440
7.2611237 2.2632022 -0.33788812 4294957312
7.4771519 2.2756071 -0.34171259 4294962944
7.5785313 2.2511263 -0.33452111 4294967040
7.6684933 2.2837434 -0.33910781 4294967040
7.7259135 2.2664032 -0.35229832 4294967040
7.8193798 2.2575731 -0.3534148 4294967040
8.1218596 2.2757285 -0.32672217 4294967040
8.538908 2.2981393 -0.34818664 4294967040
8.6514759 2.2829523 -0.30633098 4294967040
9.266264 2.2598433 -0.3623139 4294967040
9.3016348 2.2883949 -0.34145752 4294960384
9.4306383 2.2586765 -0.32127377 4294967040
11.36917 2.2689719 -0.33598495 4294967040
11.481254 2.2765155 -0.34300226 4294967040
11.546873 2.2574449 -0.35776579 4294967040
11.721214 2.201684 -0.34359783 4278452736
-2.6034126 2.3988216 -0.30804285 4294967040
-2.5424714 2.3610559 -0.34975144 4294967040
-2.4582152 2.3463392 -0.34365118 4294967040
-2.3799016 2.3496523 -0.37374863 4294957568
-2.119113 2.3020353 -0.30892646 4294967040
-1.4196076 2.3494601 -0.34668693 4294966784
-1.3697602 2.3229542 -0.36849925 4294967040
-1.2402201 2.342958 -0.36996782 4294954496
4.8840199 2.3145881 -0.36883736 4294958592
4.9756432 2.3427916 -0.36990359 4294967040
6.1669846 2.3380022 -0.3464036 4294943232
7.0239487 2.3076346 -0.30411488 4294939392
7.2728624 2.3395789 -0.3716591 4294967040
7.44663 2.3290067 -0.39640257 4294965248
7.9494309 2.3161869 -0.36297828 4294967040
8.0882244 2.3688939 -0.32166675 4294967040
8.1682253 2.3820965 -0.35151911 4294967040
8.26929 2.3867524 -0.33870232 4294967040
8.375946 2.3817441 -0.32685483 4294967040
8.4771748 2.3658347 -0.36678392 4294967040
8.5357876 2.388485 -0.36167225 4294967040
8.6550894 2.3779974 -0.34255219 4294967040
8.7633343 2.3823299 -0.36351752 4294967040
8.8126888 2.336597 -0.35967702 4294967040
9.2810059 2.3825574 -0.32868862 4294967040
9.3163795 2.3770194 -0.36505815 4294934016
11.182135 2.3749409 -0.30169064 4294967040
11.384953 2.3087368 -0.32253766 4294960128
11.447144 2.308816 -0.34039146 4294960384
-2.619472 2.4485888 -0.34264266 4294967040
-2.5495508 2.4110627 -0.35035354 4294967040
-2.4886475 2.4213045 -0.32451808 4294967040
-1.4295465 2.4148893 -0.3448748 4294967040
-1.3356004 2.4796417 -0.35992891 4294967040
-1.26133 2.4478655 -0.35427392 4294966272
4.9726167 2.4756932 -0.37500381 4294967040
7.2855926 2.4598908 -0.38516259 4294967040
7.3426914 2.4414058 -0.33005333 4294967040
8.9498043 2.4590435 -0.32942173 4294958592
9.2793856 2.4615483 -0.36937663 4294967040
9.3372231 2.4339151 -0.36314356 4294967040
-4.424726 2.5897837 -0.34296489 4294967040
-2.3662422 2.5974102 -0.32070506 4294967040
-1.5288615 2.5767717 -0.35029924 4294967040
-1.4220372 2.5245719 -0.39889535 4294967040
-1.3719454 2.5319583 -0.34986973 4294967040
4.9767146 2.533627 -0.33230445 4294967040
6.7887511 2.5973854 -0.30590457 4294931200
6.8442802 2.5725267 -0.32143018 4294937600
6.9327993 2.5492277 -0.31838602 4294952960
7.1859303 2.5164504 -0.35126504 4294966784
7.2696323 2.5432439 -0.36349851 4294967040
7.3117552 2.5344725 -0.39063346 4294967040
9.1876116 2.5501411 -0.35168821 4294967040
9.2756596 2.5495219 -0.34519249 4294967040
9.3250723 2.5057898 -0.37698987 4294967040
-2.4328511 2.654505 -0.33977556 4294967040
-2.3753114 2.631223 -0.33196855 4294967040
-1.6009973 2.6463623 -0.35817915 4294967040
-1.5673431 2.6200347 -0.35650077 4294967040
-1.4482338 2.6264591 -0.38403147 4294967040
-1.3483152 2.6152227 -0.34755963 4294967040
4.9835458 2.6656342 -0.34470356 4294967040
6.953084 2.6763589 -0.32367247 4294955008
9.2742519 2.6639867 -0.35931304 4294967040
9.3104362 2.6797149 -0.35019246 4294967040
11.337897 2.6596031 -0.31855506 4294965760
-4.2947779 2.7525458 -0.34244472 4294955776
-2.4059274 2.7176371 -0.31330034 4294967040
-2.3790612 2.7052312 -0.31657651 4294967040
-1.5560005 2.7655089 -0.37872198 4294967040
-1.4444449 2.7368467 -0.36576542 4294967040
4.9781284 2.7343168 -0.33744764 4294967040
7.9048162 2.7842212 -0.3607446 4294943744
9.2691383 2.7504933 -0.36273566 4294967040
9.3164482 2.7186058 -0.36972693 4294967040
10.594782 2.7312293 -0.36302382 4294967040
10.631762 2.7330973 -0.35803956 4294967040
11.278164 2.7712502 -0.34859943 4294966016
11.327897 2.7745013 -0.32300028 4294964224
-4.4249735 2.8706419 -0.38088179 4294930432
-1.8232374 2.869077 -0.37313396 4294967040
-1.7471974 2.8334465 -0.36440939 4294967040
-1.5212048 2.8948672 -0.3602373 4294967040
-1.4417772 2.8064938 -0.35505366 4294967040
4.9846849 2.8314044 -0.34488779 4294967040
6.4461336 2.8103065 -0.31141317 4294931200
9.2647552 2.8302712 -0.38033456 4294967040
11.480961 2.8756304 -0.30487889 4294967040
-2.0698571 2.9649911 -0.37517709 4294967040
-1.8109078 2.9501598 -0.38813081 4294962432
-1.5791197 2.9867041 -0.36006972 4294967040
4.9797688 2.9122241 -0.35586157 4294967040
7.0726843 2.9910328 -0.37206212 4294929408
7.4453592 2.9647977 -0.32373559 4294936832
10.362647 2.9764364 -0.34883824 4294938880
10.451059 2.9817054 -0.35921699 4294960128
11.487704 2.9051425 -0.30502132 4294967040
-2.1308017 3.0338449 -0.39439651 4294967040
-2.0686913 3.0193017 -0.38340175 4294967040
-1.9395741 3.0990016 -0.39959395 4294957056
-1.6005633 3.0142031 -0.3689836 4294964736
4.9840651 3.0128374 -0.37512773 4294967040
5.0014601 3.047595 -0.36851498 4294967040
6.614079 3.0665741 -0.33446971 4294950912
6.7495947 3.0618539 -0.3504765 4294963200
6.8281336 3.0706995 -0.39046863 4294952960
7.3795414 3.0445342 -0.32474917 4294928896
9.258934 3.0418606 -0.39083406 4294959360
10.293763 3.0133703 -0.33840945 4294943232
10.352332 3.0139551 -0.34534815 4294937088
11.467 3.0990992 -0.37243807 4294966272
-2.0212226 3.1398635 -0.39195174 4294967040
-1.9934599 3.1518757 -0.39160967 4294967040
-1.8607223 3.1455059 -0.39764977 4294943744
-1.7583762 3.1890094 -0.3875958 4294967040
-1.5286589 3.1851017 -0.36133668 4294967040
-1.4575864 3.1762033 -0.35455543 4294967040
4.9691744 3.1351264 -0.34088159 4294967040
5.0023313 3.1478281 -0.36176461 4294964992
6.6380568 3.124068 -0.33687317 4294951168
6.772583 3.1587007 -0.35520771 4294959872
9.1937208 3.1381705 -0.30987856 4294930688
9.5329075 3.1507847 -0.30233002 4294932480
11.366495 3.1330748 -0.38485759 4294967040
11.480238 3.1168633 -0.36786088 4294967040
11.570999 3.1111822 -0.34016591 4294967040
-2.0243056 3.2213087 -0.35501546 4294967040
-1.5681565 3.2352028 -0.33068228 4294967040
-1.4537942 3.2244401 -0.32767212 4294967040
4.9895606 3.2423255 -0.36523235 4294959360
5.0095544 3.2757971 -0.36185309 4294948608
6.7406669 3.2179351 -0.36124974 4294956800
11.388644 3.2900813 -0.36428756 4294962688
11.452511 3.2537909 -0.32187539 4294967040
11.512674 3.2454104 -0.31118762 4294967040
11.793134 3.249614 -0.36532834 4294930432
-2.0310671 3.3228965 -0.34728622 4294967040
-1.9032311 3.3741624 -0.34525871 4294967040
-1.8864855 3.3790507 -0.37344649 4294967040
-1.4651611 3.3693969 -0.38441032 4294966016
4.9844847 3.3808546 -0.34758973 4294935552
5.0001316 3.3338668 -0.35701427 4294940672
11.379567 3.322361 -0.33719951 4294967040
11.411894 3.367173 -0.31392917 4294967040
11.677571 3.3846517 -0.30826291 4294947584
11.971959 3.3069117 -0.30154547 4294942208
12.028557 3.3564854 -0.35581759 4294931712
-2.0344553 3.4492414 -0.38211286 4294967040
-1.886214 3.4045904 -0.36367869 4294967040
-1.5702467 3.4951427 -0.36064589 4294965248
-0.96343112 3.4660864 -0.38412243 4294957312
4.9968271 3.4432607 -0.36125621 4294931968
9.1987133 3.4151568 -0.33793181 4294937856
9.2264366 3.4344926 -0.34186029 4294939904
11.63544 3.4942825 -0.30822393 4294947840
12.044631 3.4098463 -0.35206071 4294935552
-5.4899559 3.5801482 -0.30748779 4294962944
-1.9663088 3.5701454 -0.38849148 4294967040
-1.8950664 3.5856626 -0.34101671 4294967040
-1.7760422 3.5411463 -0.37519246 4294959104
-1.6487393 3.5394852 -0.38230443 4294967040
4.9783878 3.5539687 -0.35276717 4294947072
5.049542 3.5482891 -0.35181996 4294930176
9.2518587 3.5135279 -0.32150069 4294937600
-5.5205526 3.6503296 -0.32249588 4294966528
-5.4772654 3.6808054 -0.34163016 4294966528
-1.9348397 3.6033773 -0.36019573 4294967040
-1.8889391 3.6890721 -0.36844054 4294967040
-1.7188301 3.654036 -0.38864738 4294944000
-0.96287572 3.6320901 -0.38926011 4294953984
-0.89565057 3.6673267 -0.38864186 4294954496
-5.6167674 3.7552993 -0.30723166 4294956800
-5.5308065 3.7133114 -0.33729267 4294963712
-5.4675884 3.785497 -0.36454928 4294951936
-1.8751501 3.7209249 -0.38362938 4294967040
-1.7493105 3.7528055 -0.3755399 4294967040
-1.635433 3.7366347 -0.39395231 4294967040
-1.5830466 3.751123 -0.38432771 4294956544
-0.8613404 3.7508459 -0.39094704 4294943488
4.9910507 3.7499435 -0.37989986 4294947072
5.0441523 3.7998486 -0.35223779 4294962432
6.7862387 3.749902 -0.31609359 4294931456
-5.5536122 3.8147144 -0.31316251 4294960384
-5.4707794 3.8248224 -0.35314956 4294962176
-1.8320419 3.8177047 -0.35207173 4294967040
-1.7740741 3.859802 -0.37954634 4294967040
-1.6934453 3.8709106 -0.38076738 4294967040
-0.7852456 3.8769593 -0.39074069 4294955008
4.9857364 3.8470383 -0.3530249 4294967040
5.0110931 3.8580978 -0.35461369 4294967040
6.7513299 3.8143244 -0.37096322 4294928384
-1.7568368 3.9268126 -0.37546855 4294967040
-1.0601623 3.9690096 -0.39194781 4294967040
-0.75272095 3.992065 -0.39295402 4294951680
4.9945478 3.9059615 -0.34950796 4294964992
-1.7122627 4.0166364 -0.37359494 4294960384
-1.6768374 4.0599437 -0.37201202 4294949632
-1.3784029 4.0317707 -0.39923796 4294941184
-1.1636188 4.0384502 -0.36417866 4294967040
-1.0785954 4.0071707 -0.37685418 4294967040
-0.71843821 4.0596161 -0.3938776 4294943744
4.9735904 4.0254483 -0.37638566 4294947584
-1.6496358 4.1653204 -0.3725678 4294945280
-1.3425086 4.1544542 -0.34725356 4294959360
-1.2411602 4.1427336 -0.37823826 4294957824
-1.0334104 4.1565609 -0.36978751 4294967040
-0.67155546 4.1689878 -0.39342275 4294967040
4.9809146 4.1607695 -0.38107771 4294949632
5.3819809 4.1893644 -0.3595925 4294944768
-1.3245962 4.2418351 -0.36616805 4294967040
-0.68678302 4.2158475 -0.3063288 4294967040
4.9726558 4.2800193 -0.30721948 4294949376
5.3292027 4.2502322 -0.36425003 4294942464
5.4251103 4.2060375 -0.36332047 4294938368
-1.5456506 4.383215 -0.37183538 4294937856
-1.2166345 4.3605375 -0.35497171 4294967040
-1.1029451 4.3930407 -0.30259389 4294967040
-1.0378485 4.3332968 -0.33243254 4294967040
7.244009 4.3736448 -0.34271997 4294931456
-1.3448799 4.4896259 -0.36683169 4294967040
-1.1466966 4.4241543 -0.33141971 4294967040
-1.0288215 4.4322691 -0.33052498 4294967040
-0.97237241 4.4478607 -0.33322635 4294967040
-0.83933914 4.4527106 -0.32948011 4294967040
-0.79576945 4.4775229 -0.32413447 4294967040
7.2836003 4.4544945 -0.34649897 4294938624
7.3601804 4.4379978 -0.34207827 4294937856
-6.5870976 4.551897 -0.37313002 4294967040
-6.4132156 4.5985646 -0.348382 4294967040
-6.3688154 4.5945225 -0.34707379 4294967040
-6.1340504 4.5951486 -0.33252886 4294967040
-6.091712 4.598752 -0.33318436 4294967040
-1.3534536 4.5703712 -0.37142587 4294967040
-1.1589444 4.5399065 -0.35500008 4294967040
-1.0287702 4.5341506 -0.33385921 4294967040
-0.90166533 4.5137205 -0.32246983 4294967040
-0.89601839 4.5481052 -0.33138281 4294967040
6.7743225 4.5519042 -0.32135332 4294942976
-6.719873 4.6479559 -0.38386634 4294967040
-6.6717424 4.6227064 -0.39405257 4294967040
-6.5725174 4.6187315 -0.36538899 4294967040
-6.4453115 4.6075797 -0.3603279 4294967040
-6.3974977 4.6997247 -0.39109644 4294967040
-6.1044021 4.670289 -0.37861437 4294967040
-6.0665436 4.6712885 -0.39405769 4294967040
-1.3251835 4.6553178 -0.36315426 4294967040
-1.2243068 4.6973715 -0.33438671 4294967040
-1.0703014 4.6700578 -0.31464648 4294967040
5.0462742 4.6168861 -0.36728966 4294962432
5.1097217 4.6740355 -0.36001968 4294956800
6.7374887 4.6551962 -0.33035654 4294942464
-6.3787837 4.7054882 -0.38544431 4294967040
-6.152874 4.7538495 -0.38062024 4294967040
-1.3105277 4.7112565 -0.33054256 4294967040
-1.2907035 4.7215281 -0.37291253 4294967040
-0.97752559 4.7413416 -0.3263804 4294967040
4.9132619 4.7279825 -0.38181594 4294954752
