# .PCD v0.7 - Point Cloud Data file format
VERSION 0.7
FIELDS x y z rgb
SIZE 4 4 4 4
TYPE F F F U
COUNT 1 1 1 1
WIDTH 1117
HEIGHT 1
VIEWPOINT 0 0 0 1 0 0 0
POINTS 1117
DATA ascii
8.4990988 -4.2863145 0.0031659184 4294967040
8.7049036 -4.2537737 0.17493653 4294967040
8.8828278 -4.2690306 0.18993014 4294967040
9.020422 -4.2736712 0.19810849 4294967040
5.3707733 -4.1238613 0.059439681 4294967040
6.533433 -4.1606588 0.047096588 4294967040
6.6413937 -4.1394224 0.052788302 4294967040
7.1543479 -4.0885959 0.099967152 4294967040
7.2316408 -4.0846596 0.10036721 4294967040
8.5407963 -4.1128707 0.0033467286 4294967040
8.7198639 -4.0933185 0.16929036 4294967040
8.9728832 -4.1247597 0.19526006 4294967040
9.0238934 -4.1122999 0.13850771 4294967040
5.3675728 -3.8981533 0.079541102 4294967040
6.9554963 -3.8715339 0.044556603 4294967040
7.1118155 -3.9011159 0.097653553 4294967040
7.2339606 -3.9806767 0.094177157 4294967040
8.5342846 -3.8688951 0.0055218497 4294967040
8.65415 -3.8664136 0.098879509 4294967040
8.9429159 -3.8700733 0.14328377 4294967040
9.0053482 -3.8095989 0.11098488 4294967040
9.5508537 -3.8583302 0.14185552 4294967040
9.6363049 -3.8321364 0.16096419 4294967040
6.1131344 -3.6206477 0.04542926 4294967040
6.3454986 -3.628463 0.07184922 4294967040
6.4773769 -3.6412587 0.046115361 4294967040
6.60884 -3.6893687 0.0014245395 4294967040
6.9836388 -3.7143223 0.017650917 4294967040
7.0553999 -3.6795082 0.062823988 4294967040
8.5548639 -3.6923156 0.011099372 4294967040
8.6516323 -3.6499972 0.099246085 4294967040
8.8533325 -3.692668 0.18887371 4294967040
9.0691223 -3.7073932 0.1166916 4294967040
9.3532124 -3.619503 0.12566513 4294967040
9.4818277 -3.7013464 0.14194894 4294967040
9.6055984 -3.6380548 0.17222467 4294967040
5.3728685 -3.5572219 0.036319554 4294967040
6.1930981 -3.4074082 0.054814529 4294967040
6.3101912 -3.4718146 0.07245522 4294967040
6.4594288 -3.5438914 0.077149831 4294967040
6.6615381 -3.4763741 0.015773809 4294967040
6.9845285 -3.5654078 0.015558093 4294967040
7.0150995 -3.5802212 0.079120003 4294967040
8.578043 -3.4810412 0.01815024 4294967040
8.7393456 -3.521795 0.15350321 4294967040
8.9679346 -3.5376201 0.096430659 4294967040
9.0611935 -3.5242631 0.16636026 4294967040
9.3270855 -3.4448929 0.025256105 4294967040
9.5763626 -3.4529688 0.076805592 4294967040
9.6085873 -3.5735836 0.16629666 4294967040
6.1702013 -3.2612967 0.06680268 4294967040
6.3102937 -3.3256967 0.069841534 4294967040
6.4708018 -3.2666121 0.011243051 4294967040
8.5384398 -3.3007512 0.028252959 4294967040
8.6886358 -3.3002605 0.079845011 4294967040
8.8321419 -3.3010859 0.17269626 4294967040
9.1736507 -3.2547486 0.11947098 4294967040
9.3312426 -3.2596359 0.057583764 4294967040
9.5116253 -3.2273583 0.039740223 4294967040
9.6749516 -3.2170553 0.051164746 4294967040
5.6027923 -3.0946252 0.057580467 4294967040
6.1629162 -3.153677 0.050957315 4294967040
6.3306894 -3.1284261 0.011454875 4294967040
9.1840687 -3.1628957 0.13997954 4294967040
9.2421446 -3.0852172 0.12467432 4294967040
9.5102386 -3.165158 0.13332053 4294967040
9.7263355 -3.0838256 0.040634416 4294967040
5.362247 -2.8465681 0.086110681 4294967040
5.4551558 -2.803514 0.10275127 4294967040
5.7718964 -2.9477749 0.13909769 4294967040
5.959444 -2.9027882 0.089076281 4294967040
6.0202603 -2.9476748 0.10818003 4294967040
6.5577469 -2.9017944 0.0039465996 4294967040
6.6432281 -2.9735763 0.010375403 4294967040
6.8192463 -2.8195791 0.0067673232 4294967040
7.2420778 -2.9326978 0.098536715 4294967040
9.1884241 -2.9023461 0.12741023 4294967040
9.2812033 -2.9209697 0.13727383 4294967040
9.5844574 -2.8049517 0.030931238 4294967040
9.6550159 -2.8748243 0.075535662 4294967040
5.7522068 -2.6689377 0.0043377397 4294967040
5.9241281 -2.6314597 0.011628679 4294967040
6.1820469 -2.626487 0.10613242 4294967040
6.3320098 -2.6710322 0.027675187 4294967040
6.4370117 -2.7090034 0.0092606712 4294967040
6.7048798 -2.7224288 0.0047487719 4294967040
6.8010263 -2.7690737 0.0050982684 4294967040
9.1959324 -2.7806938 0.0098543996 4294967040
9.3267679 -2.7091355 0.14762768 4294967040
9.5752974 -2.675904 0.025498262 4294967040
9.6063995 -2.7625146 0.13264957 4294967040
5.9665856 -2.4047945 0.10230502 4294967040
6.1379824 -2.5710802 0.11392418 4294967040
6.3281693 -2.5996869 0.00048040377 4294967040
6.4466195 -2.5641165 0.0063324813 4294967040
9.1961708 -2.4615657 0.015948679 4294967040
9.3234253 -2.5337377 0.092235476 4294967040
9.5894003 -2.5315666 0.056515411 4294967040
9.7433968 -2.4851899 0.057194244 4294967040
4.5734615 -2.2006681 0.042468868 4294967040
4.7638645 -2.2123156 0.092736229 4294967040
4.8978739 -2.2226086 0.042235088 4294967040
5.1004105 -2.2274804 0.082013115 4294967040
5.2780571 -2.2202735 0.11650099 4294967040
5.4533472 -2.3263419 0.10072339 4294967040
5.9238138 -2.320498 0.11536831 4294967040
6.0413756 -2.3920534 0.12119876 4294967040
9.3325377 -2.3582802 0.080159083 4294967040
9.4906693 -2.3400464 0.15748321 4294967040
9.7433052 -2.3301485 0.057896335 4294967040
-3.4530382 -2.0811071 0.13930297 4294967040
-3.3988562 -2.0774045 0.10433455 4294967040
-0.43137208 -2.0456972 0.05751523 4294967040
-0.25390348 -2.0583913 0.071341559 4294967040
-0.10520382 -2.0896368 0.044472016 4294967040
0.099356741 -2.0853918 0.069267094 4294967040
0.25578341 -2.1165333 0.050600566 4294967040
0.89980531 -2.0819583 0.059601501 4294967040
3.0368073 -2.0530374 0.021033788 4294967040
4.1713295 -2.1093707 0.0024293554 4294967040
4.5815129 -2.1966426 0.011762933 4294967040
4.6481752 -2.195632 0.054705162 4294967040
4.8801823 -2.1903515 0.071864426 4294967040
5.0882812 -2.1164083 0.085359462 4294967040
9.4420338 -2.0915935 0.017124712 4294967040
9.7423687 -2.1238027 0.058712464 4294967040
-0.43490553 -1.9535431 0.074432231 4294967040
-0.29134962 -1.9362278 0.062054247 4294967040
-0.12340719 -1.953446 0.1147933 4294967040
0.03711585 -1.961504 0.10524786 4294967040
3.1899517 -1.9606838 0.0025827636 4294967040
3.2916546 -1.8916014 0.0082116239 4294967040
3.4282513 -1.8070481 0.013959556 4294967040
3.7253995 -1.8207381 0.044934858 4294967040
3.8951325 -1.8232208 0.020784017 4294967040
4.0819125 -1.8286701 0.09120658 4294967040
4.8126202 -1.9606154 0.071889311 4294967040
8.9573956 -1.8625222 0.033149164 4294967040
9.3971043 -1.8085438 0.020971011 4294967040
9.4629498 -1.9445212 0.10984141 4294967040
9.7523632 -1.8712946 0.057429221 4294967040
-0.65159035 -1.6717298 0.051265284 4294967040
-0.51353204 -1.7042825 0.11557606 4294967040
2.5275259 -1.6565379 0.064621851 4294967040
2.6856945 -1.7160907 0.1377302 4294967040
2.8049786 -1.603181 0.012449889 4294967040
3.3879113 -1.7636961 0.013812125 4294967040
3.5040834 -1.6909282 0.021687523 4294967040
3.6478829 -1.6817985 0.0063557145 4294967040
3.8197727 -1.7690864 0.012340477 4294967040
4.0926828 -1.6129633 0.080849819 4294967040
8.7575788 -1.7859045 0.032491133 4294967040
9.401226 -1.6094962 0.035237852 4294967040
9.7503433 -1.7682551 0.060431607 4294967040
2.3815506 -1.5630116 0.13853139 4294967040
2.496161 -1.5608387 0.046647482 4294967040
2.7015848 -1.5325565 0.042958304 4294967040
2.9314709 -1.5040054 0.0082143079 4294967040
3.0297577 -1.5189613 0.012443732 4294967040
3.3943679 -1.5312619 0.013125666 4294967040
3.5286343 -1.5186 0.0043679099 4294967040
3.6863179 -1.5253336 0.023194868 4294967040
3.8069413 -1.5695078 0.020284908 4294967040
4.0883083 -1.5010121 0.033763271 4294967040
9.5229034 -1.4538841 0.077714369 4294967040
9.7068214 -1.4521216 0.046352625 4294967040
9.8187714 -1.4944041 0.013508322 4294967040
2.3700044 -1.3594253 0.013155646 4294967040
2.5166755 -1.328871 0.01684441 4294967040
2.6498084 -1.2753258 0.022093059 4294967040
2.8134804 -1.2553782 0.029424576 4294967040
3.4803491 -1.3406327 0.019532381 4294967040
3.7172217 -1.3605082 0.021711487 4294967040
3.804765 -1.3530453 0.018592704 4294967040
4.0955043 -1.3911026 0.0090400521 4294967040
8.9830761 -1.2374659 0.193086 4294967040
9.0385456 -1.2073821 0.097911865 4294967040
9.3405371 -1.2890725 0.11941474 4294967040
9.4527035 -1.3366516 0.073518589 4294967040
9.7035418 -1.391381 0.030261368 4294967040
9.8248911 -1.296533 0.077350073 4294967040
2.3924692 -1.0313759 0.10466713 4294967040
2.4718366 -1.140425 0.041141346 4294967040
2.6271689 -1.061739 0.040717021 4294967040
4.0679712 -1.0004817 0.030473214 4294967040
8.9984694 -1.1321023 0.14670527 4294967040
9.0858564 -1.0726688 0.038370326 4294967040
9.2080183 -1.1931338 0.13229001 4294967040
2.389137 -0.84257036 0.053426325 4294967040
2.5106976 -0.8872875 0.079815179 4294967040
2.6653368 -0.99349809 0.0331285 4294967040
4.0795488 -0.91680431 0.026530925 4294967040
8.7740459 -0.94080603 0.0059083686 4294967040
8.8961201 -0.96939152 0.025422717 4294967040
9.0960522 -0.97332501 0.062091976 4294967040
9.4910603 -0.82808697 0.08311744 4294967040
9.7393932 -0.8110891 0.064347953 4294967040
9.8006687 -0.85213923 0.079044409 4294967040
2.395334 -0.76805514 0.081426486 4294967040
2.4178305 -0.77153611 0.10237355 4294967040
2.6130786 -0.76910418 0.010694476 4294967040
3.7742112 -0.6616652 0.025708318 4294967040
4.0690341 -0.70721436 0.042023081 4294967040
9.0680857 -0.77649224 0.16724533 4294967040
9.4392366 -0.74587357 0.057138287 4294967040
9.74718 -0.65284848 0.065305322 4294967040
3.4958308 -0.55070639 0.07666301 4294967040
3.6643305 -0.59478545 0.032526206 4294967040
4.1609874 -0.55317569 0.036782533 4294967040
9.7497826 -0.45350161 0.066129021 4294967040
9.8002243 -0.40595776 0.13443957 4294967040
3.5158792 -0.3770774 0.043625809 4294967040
3.6131394 -0.39758253 0.047168467 4294967040
9.7507448 -0.28309214 0.067157499 4294967040
9.801445 -0.3124277 0.12907633 4294967040
9.3902016 -0.0028796857 0.084751636 4294967040
9.4013958 -0.0019175865 0.081128523 4294967040
9.7545118 -0.11017293 0.065476567 4294967040
9.8023262 -0.11347961 0.14046676 4294967040
-4.1561866 0.19447881 0.082568459 4294967040
9.1967773 0.1160771 0.042884629 4294967040
9.3318176 0.10348516 0.062886082 4294967040
9.4486122 0.12603703 0.053006947 4294967040
9.7477188 0.13803276 0.067329735 4294967040
9.8022137 0.048309602 0.17002302 4294967040
-4.215086 0.30943376 0.075886205 4294967040
9.1954517 0.22057666 0.0046408921 4294967040
9.3076296 0.26128322 0.049798686 4294967040
9.5208588 0.29589576 0.05764823 4294967040
9.7587938 0.36126328 0.070138127 4294967040
9.8018913 0.29252037 0.18424153 4294967040
-4.2420068 0.49354008 0.081562601 4294967040
-4.1964569 0.42060372 0.086874008 4294967040
4.5837212 0.45871288 0.04817678 4294967040
4.6508708 0.54338664 0.047144253 4294967040
4.8471861 0.47394931 0.036166549 4294967040
9.7593822 0.55741036 0.071270809 4294967040
9.8026714 0.51866996 0.15498953 4294967040
-4.2353387 0.6594215 0.084781721 4294967040
-1.0593791 0.78435421 0.064139396 4294967040
-0.88216907 0.77683198 0.087305948 4294967040
-0.62938601 0.79021287 0.063212752 4294967040
-0.50761253 0.79252589 0.051777884 4294967040
-0.33484656 0.7217288 0.064059392 4294967040
2.1239138 0.73257953 0.018698901 4294967040
2.3184612 0.74906921 0.017161651 4294967040
6.2782898 0.63486844 0.045392387 4294967040
6.5069151 0.66650188 0.053556994 4294967040
6.6804376 0.66745317 0.11770736 4294967040
7.7976475 0.67854524 0.061029088 4294967040
7.8343458 0.67251468 0.14086694 4294967040
8.0726194 0.72339916 0.18837517 4294967040
9.7532959 0.70268929 0.078243256 4294967040
9.802207 0.7501266 0.15980309 4294967040
-4.2428265 0.86062801 0.09113346 4294967040
-4.1970491 0.81443942 0.068036735 4294967040
-0.7170915 0.9700411 0.082136869 4294967040
-0.49346769 0.81938684 0.057767756 4294967040
1.1043633 0.98904729 0.01469305 4294967040
4.1037741 0.99029756 0.084824681 4294967040
4.2543612 0.93959367 0.10621823 4294967040
7.3647089 0.98718911 0.1735049 4294967040
7.4272289 0.96804875 0.17613533 4294967040
7.9489093 0.95422733 0.050713308 4294967040
8.7618351 0.98612905 0.011447376 4294967040
8.8714027 0.92983031 0.019272707 4294967040
9.7643909 0.90035152 0.080928847 4294967040
9.8033619 0.93998671 0.16105825 4294967040
-4.241343 1.0299608 0.092118442 4294967040
-0.70952034 1.0910201 0.084323302 4294967040
-0.087967277 1.0972925 0.073221661 4294965248
0.028734948 1.0924067 0.063259631 4294967040
0.81081849 1.0672143 0.082433097 4294939392
1.1625781 1.0446271 0.040359668 4294967040
1.2040625 1.0663307 0.021478325 4294967040
4.1119304 1.0439605 0.072585829 4294967040
4.2384224 1.1208026 0.043801911 4294967040
4.5904756 1.1773938 0.030964866 4294967040
4.7879682 1.1750715 0.048551358 4294967040
4.8821316 1.1724197 0.051244348 4294967040
5.0888271 1.1977859 0.053559214 4294967040
5.5130472 1.1151793 0.14055783 4294967040
5.6256924 1.1881354 0.066276416 4294967040
5.9298182 1.1081684 0.12557518 4294967040
6.0669866 1.1685958 0.18851201 4294967040
6.3285241 1.1534513 0.17427567 4294967040
6.4873867 1.1708357 0.11347608 4294967040
6.7139997 1.1712004 0.048433408 4294967040
6.9389992 1.1700807 0.19082808 4294967040
7.094223 1.1463048 0.10314469 4294967040
7.3837929 1.0849694 0.18542373 4294967040
7.417625 1.0814409 0.17928997 4294967040
7.9775963 1.0336746 0.060959164 4294967040
8.3573389 1.1825049 0.013871025 4294967040
8.5435934 1.1400917 0.025586352 4294967040
8.7110643 1.1755835 0.0078910785 4294967040
8.8306665 1.110672 0.019837527 4294967040
9.5694685 1.1568872 0.073693693 4294967040
9.789011 1.0855459 0.07942161 4294967040
9.8111725 1.0420132 0.18980792 4294967040
-4.7121258 1.3080738 0.15909207 4294967040
-4.3043494 1.2501968 0.14589815 4294967040
-0.70283979 1.2142017 0.088573962 4294967040
-0.0098025557 1.300369 0.089267403 4294967040
0.012847922 1.2573138 0.080782942 4294967040
4.2937007 1.3015417 0.086519651 4294967040
4.7808242 1.2001206 0.04004477 4294967040
4.9330111 1.2090783 0.043336183 4294967040
5.1671472 1.2393674 0.074141964 4294967040
5.3391008 1.2425623 0.086141884 4294967040
5.5271835 1.2555947 0.14557564 4294967040
5.620441 1.2622247 0.13620947 4294967040
5.8946624 1.2194264 0.10167372 4294967040
6.042798 1.2157767 0.084978506 4294967040
6.7132263 1.2018275 0.059372269 4294967040
6.9164381 1.2089856 0.1767724 4294967040
7.0757647 1.2670974 0.15266368 4294967040
7.2049484 1.2801999 0.15876751 4294967040
7.7268076 1.3998879 0.066646062 4294967040
7.9368119 1.3943506 0.061722443 4294967040
8.1275034 1.2963847 0.088820316 4294967040
8.3371954 1.2760984 0.016290035 4294967040
8.5311985 1.3606933 0.0083432673 4294967040
8.6502056 1.2785156 0.011137059 4294967040
8.8329964 1.2729056 0.041859537 4294967040
9.5665636 1.3675845 0.088571057 4294967040
9.7958736 1.3171171 0.094876908 4294967040
9.8209295 1.2912889 0.17112923 4294967040
-4.7232356 1.4928156 0.15832111 4294967040
-4.2681727 1.5136369 0.11904359 4294967040
-0.11886352 1.4356831 0.099525958 4294951936
3.7846351 1.4365909 0.097006209 4294967040
3.9574668 1.4325261 0.12679319 4294967040
4.1189103 1.4799746 0.13350321 4294967040
4.3121257 1.5200536 0.099111483 4294967040
5.297739 1.4157186 0.12580985 4294967040
6.4933672 1.5039797 0.11877336 4294967040
6.7459288 1.4891737 0.14766744 4294967040
6.9389715 1.5466669 0.07844162 4294967040
7.0849204 1.4993438 0.055160236 4294967040
7.3152847 1.4881098 0.035721306 4294967040
7.5117426 1.4866359 0.036566481 4294967040
7.6375246 1.4829793 0.023679532 4294967040
7.8874955 1.4883817 0.058173608 4294967040
8.0756617 1.5056303 0.069269069 4294967040
8.3563738 1.5279671 0.0080953492 4294967040
8.5285206 1.511971 0.0055121421 4294967040
8.6643429 1.466054 0.006843945 4294967040
9.4714308 1.4420528 0.10444611 4294967040
9.7885227 1.5302149 0.0088649141 4294967040
9.8314571 1.5118859 0.16968308 4294967040
-4.6990662 1.6740289 0.16505828 4294967040
-4.2756014 1.615747 0.12098079 4294967040
2.3970964 1.7996702 0.051473122 4294967040
5.3369122 1.6571276 0.089201741 4294967040
6.5919952 1.6405566 0.051877208 4294967040
6.7013755 1.6614102 0.11107638 4294967040
6.9291525 1.6442239 0.086786307 4294967040
7.1156983 1.7546877 0.17545842 4294967040
7.3582726 1.7108142 0.14327706 4294967040
7.4560328 1.7181957 0.15950206 4294967040
7.7517614 1.7244017 0.15513682 4294967040
7.8670578 1.6632795 0.12750612 4294967040
8.1157036 1.7594745 0.090948761 4294967040
8.2475119 1.7149645 0.077551268 4294967040
8.5347347 1.6791344 0.013306197 4294967040
8.6348877 1.6186321 0.0087846313 4294967040
8.9033585 1.7117075 0.0051307385 4294967040
9.2608013 1.762888 0.19179162 4294967040
9.7946157 1.6853328 0.10015205 4294967040
9.8239183 1.6788634 0.15422575 4294967040
-7.2209611 1.9572991 0.18721107 4279697152
-4.7111974 1.9594259 0.16961363 4294967040
-4.2650118 1.820753 0.10520755 4294967040
2.3892243 1.9012779 0.073249362 4294967040
2.4010353 1.9942803 0.061445042 4294967040
6.5667133 1.9325361 0.14918031 4294960896
7.143703 1.8337646 0.15668267 4294967040
7.3303566 1.917892 0.12008944 4294967040
7.4113302 1.9697498 0.17362291 4294967040
7.9834924 1.8384819 0.09175536 4294967040
8.1635857 1.9704182 0.18835929 4294967040
8.2533178 1.9605587 0.17789382 4294967040
9.1958961 1.9584084 0.10047393 4294967040
9.2650566 1.8735995 0.11092877 4294967040
9.5068235 1.8721758 0.13398318 4294967040
9.6948767 1.8552833 0.16136253 4294967040
9.8171549 1.8242315 0.14759278 4294967040
-7.2358842 2.1232607 0.18704779 4279697152
-0.62774873 2.1752927 0.039366886 4293833728
-0.54653287 2.1727114 0.036419079 4292780544
2.3929715 2.0751557 0.067413792 4294967040
2.4081187 2.1290298 0.053722229 4294967040
4.1774144 2.0774965 0.16064841 4294967040
4.2103977 2.0985069 0.17897141 4294967040
4.9262857 2.0937257 0.11100316 4294967040
5.0469704 2.1279593 0.11453326 4294967040
5.2678766 2.1374474 0.1286529 4294967040
6.1107869 2.1668406 0.14457744 4294967040
7.3614063 2.0170498 0.1467562 4294967040
8.1671772 2.0049727 0.19532941 4294967040
9.2603931 2.0283756 0.12700891 4294967040
9.4737568 2.1300223 0.1887977 4294967040
-7.2519784 2.3065295 0.15355958 4279697152
-7.1099253 2.3611345 0.1298873 4279697152
-6.8953271 2.3197365 0.18310948 4279697152
-4.6770244 2.3819005 0.11484491 4294967040
-4.3807788 2.2482142 0.046331976 4294967040
2.3592749 2.2658122 0.067396663 4294967040
2.4025211 2.3824234 0.072463252 4294967040
2.6629031 2.3037655 0.045048196 4294967040
4.861455 2.3236599 0.030221958 4294967040
5.0500083 2.2371428 0.12746744 4294967040
5.3274641 2.2293911 0.084979214 4294967040
5.4682469 2.2495587 0.14974761 4294967040
5.734942 2.2693632 0.15693235 4294967040
5.9311996 2.2517557 0.19551027 4294967040
6.1263871 2.2633476 0.18687089 4294967040
6.2302437 2.2382865 0.1451233 4294967040
6.4175668 2.317832 0.15794227 4294967040
6.7304077 2.2999811 0.15971181 4294967040
9.1536846 2.362021 0.11342353 4294967040
9.3049183 2.3401866 0.11707147 4294967040
9.4636574 2.2345982 0.16262028 4294967040
-7.6325727 2.4458909 0.010982767 4279697152
-7.4889641 2.4302781 0.1964297 4279697152
-7.0375657 2.4578485 0.079979241 4279697152
-6.9560294 2.5389278 0.11852453 4279697152
-4.6823735 2.4721749 0.15314494 4294967040
2.3981264 2.4345105 0.086901732 4294967040
2.4058757 2.5559688 0.068024874 4294967040
2.6631255 2.4992924 0.075835668 4294967040
2.8595414 2.5443435 0.074439451 4294967040
3.0891418 2.4895184 0.0042100176 4294967040
4.9267678 2.5697937 0.1008824 4294967040
5.0922756 2.5053971 0.13111004 4294967040
6.7297602 2.4711671 0.17040029 4294967040
8.1886272 2.586107 0.090864845 4294967040
8.3380508 2.5789814 0.1082372 4294967040
8.6267252 2.5963655 0.1047172 4294967040
9.1329575 2.4642372 0.10793659 4294967040
9.3172808 2.465888 0.11552943 4294967040
9.4751377 2.4515986 0.18569581 4294967040
-6.9533906 2.6786399 0.076357067 4279697152
-4.6975431 2.688031 0.17568779 4294967040
2.3869491 2.6735055 0.051918309 4294967040
2.4085569 2.7512612 0.088373818 4294967040
2.6946549 2.657372 0.028619176 4294967040
2.9217741 2.7418594 0.056528702 4294967040
3.0990577 2.7772932 0.047618188 4294967040
3.3102899 2.7843537 0.060508057 4294967040
3.549655 2.7298253 0.058950335 4294967040
3.6827793 2.7675807 0.073750518 4294967040
3.8346601 2.7742653 0.028546538 4294965760
4.9447393 2.7656436 0.087161273 4294967040
5.0480533 2.6317487 0.12688887 4294967040
6.5336647 2.7187021 0.13908783 4294967040
6.6638303 2.725167 0.16492349 4294967040
6.8781648 2.7670636 0.071171962 4294967040
8.5539417 2.7689147 0.12823915 4294967040
8.660738 2.7688851 0.17943507 4294967040
8.9264822 2.7917807 0.18123177 4294967040
9.1325493 2.792803 0.1757257 4294967040
9.3365479 2.6900668 0.13168816 4294967040
9.4586735 2.682461 0.18317595 4294967040
-6.9443617 2.9481874 0.11527029 4279697152
-4.7143068 2.8771884 0.17270394 4294967040
2.3848584 2.8505578 0.084452763 4294967040
2.4183478 2.9749224 0.095917113 4294967040
2.7508144 2.8603723 0.070687868 4294967040
2.8184409 2.8279805 0.0855878 4294967040
3.0901346 2.8490033 0.041856539 4294967040
3.2930827 2.8068109 0.01247413 4294967040
3.4859409 2.8482327 0.021555306 4294967040
3.6441603 2.8324013 0.049726695 4294967040
3.9024398 2.8198178 0.027421642 4294964224
4.1251221 2.9281955 0.14801061 4294965760
4.203351 2.961488 0.17161983 4294965248
4.9453144 2.8198409 0.092726558 4294967040
5.3313842 2.980103 0.037658632 4294967040
6.5822554 2.8979487 0.14428617 4294967040
6.6157384 2.9587216 0.1156698 4294967040
6.9025211 2.8548462 0.11687315 4294967040
7.0229321 2.8755987 0.074971631 4294967040
8.3660965 2.9767089 0.17859805 4294967040
8.5167065 2.9108295 0.17712645 4294967040
8.7567396 2.8337996 0.016056444 4294967040
8.9593601 2.8415642 0.18276861 4294967040
9.144413 2.8488007 0.17068002 4294967040
9.259304 2.9265349 0.18447243 4294967040
9.4349413 2.8800523 0.17799073 4294967040
-6.9466424 3.0721998 0.013153818 4279697152
-4.8500409 3.1409745 0.034471296 4294967040
-4.7676497 3.1261592 0.034771167 4294967040
2.4245176 3.154326 0.097928643 4294967040
6.5669813 3.1005633 0.15631819 4294967040
6.6633253 3.0494354 0.1610003 4294967040
6.9074478 3.1150415 0.082535863 4294967040
7.0270181 3.1251051 0.093179829 4294967040
8.9723091 3.0100665 0.14078027 4294967040
9.1134167 3.0051999 0.15351295 4294967040
9.2504044 3.0119009 0.17176081 4294967040
2.4272456 3.3313556 0.11396953 4294967040
4.8362808 3.2643306 0.047089886 4294967040
5.1612072 3.2989707 0.13464685 4294966528
6.5753126 3.253562 0.16684523 4294967040
6.6656513 3.2979248 0.16861893 4294967040
2.4355698 3.5273864 0.10834807 4294967040
6.7172871 3.4717846 0.093975097 4294967040
2.4343002 3.6455424 0.098377816 4294967040
2.4310656 3.8450556 0.081653848 4294967040
2.4366009 4.0254745 0.020331847 4294967040
2.3092029 4.5652928 0.018023876 4294967040
2.525491 4.5242577 0.058144882 4294967040
1.9910717 4.7925816 0.14340465 4294967040
2.1801291 4.7811232 0.10218544 4294967040
2.3802218 4.7846866 0.10746978 4294967040
2.4271696 4.7857447 0.081935853 4294967040
2.7090127 4.7359147 0.052764468 4294967040
4.1231251 4.7528296 0.11706063 4294967040
4.218399 4.7216911 0.1152 4294967040
4.786037 4.7822781 0.066582531 4294967040
4.8149886 4.7340059 0.13228689 4294967040
-8.5372581 4.8741364 0.012452632 4278321152
1.9998382 4.8013263 0.13779472 4294967040
2.0703223 4.8050852 0.10648751 4294967040
2.3100967 4.8047895 0.053838488 4294967040
2.460145 4.8370934 0.055345371 4294967040
2.8454235 4.9349594 0.028264429 4294967040
4.1248665 4.8366423 0.12546656 4294967040
4.888505 4.928895 0.09233965 4294967040
2.4475896 5.1482573 0.10542569 4294967040
2.7131162 5.1767807 0.084418684 4294967040
2.8259549 5.172266 0.10787126 4294967040
4.186152 5.1455674 0.16719624 4294967040
4.2059093 5.1014099 0.06557782 4294967040
4.9751234 5.057848 0.07097581 4294967040
2.1513486 5.3036375 0.13411501 4294967040
2.2654693 5.2716279 0.15502247 4294967040
2.5578475 5.2886705 0.077905267 4294967040
2.6233432 5.2258935 0.072718322 4294967040
2.9562356 5.2540107 0.11227103 4294967040
3.0142679 5.3090892 0.10404335 4294967040
4.3077841 5.3289051 0.08024206 4294967040
2.4509895 5.535675 0.078705408 4294967040
3.0469577 5.4141126 0.049277008 4294967040
3.7228928 5.5728202 0.1635202 4294967040
3.8819802 5.5554719 0.12785751 4294967040
4.0203948 5.5650415 0.09631817 4294967040
4.3374481 5.5075116 0.1037 4294967040
2.4462717 5.7252941 0.07094077 4294967040
3.6977813 5.6900029 0.14169823 4294967040
4.0713596 5.6131449 0.075790614 4294967040
4.3645496 5.659164 0.14378661 4294967040
4.4066334 5.6057601 0.080936462 4294967040
2.443671 5.8331385 0.15581852 4294967040
3.6868896 5.9903622 0.14134848 4294967040
4.1868286 5.9519191 0.1009212 4294967040
4.30828 5.8655477 0.12159981 4294967040
5.0967636 5.8461895 0.088806629 4294967040
2.3094387 6.1633763 0.18698332 4294967040
2.4293833 6.1576743 0.13904038 4294967040
3.171567 6.195672 0.039013922 4294967040
3.2871251 6.0814514 0.14082244 4294967040
3.5104649 6.1135998 0.095568538 4294967040
3.650229 6.0379701 0.1413957 4294967040
4.3000484 6.0785012 0.1548177 4294967040
4.6576915 6.1203141 0.074172847 4294967040
5.1198864 6.0426569 0.19457358 4294967040
5.9499207 6.1989675 0.18082364 4294967040
2.3342543 6.3097496 0.19603817 4294967040
2.4327154 6.2876897 0.1822843 4294967040
2.9523554 6.3431768 0.058481231 4294967040
3.1905277 6.2912273 0.13424534 4294967040
3.3174057 6.311367 0.14902869 4294967040
3.5215435 6.3378549 0.16031136 4294967040
3.6242461 6.3080006 0.12534019 4294967040
4.7685428 6.2458649 0.13948146 4294967040
4.9690342 6.327116 0.17444268 4294967040
5.1408081 6.3143535 0.17651367 4294967040
5.3122387 6.3166289 0.13813549 4294967040
5.4911642 6.3241301 0.15855578 4294967040
5.962842 6.2636967 0.13805981 4294967040
6.1050572 6.2984271 0.10193919 4294967040
6.289381 6.295094 0.098309971 4294967040
2.4694316 6.4030132 0.17292356 4294967040
3.6236401 6.4057579 0.19173369 4294967040
-0.10817385 -6.558867 0.24533394 4294967040
5.3773656 -5.0830612 0.26694384 4294967040
5.5544381 -5.1091595 0.24939139 4294967040
5.7003822 -5.1119294 0.2597754 4294967040
5.9628172 -5.1069584 0.23214489 4294967040
6.1450605 -5.1023703 0.21753603 4294967040
6.3678961 -5.1135025 0.21939966 4294967040
6.5727644 -5.1155891 0.26691717 4294967040
6.7653809 -5.1182384 0.27210182 4294967040
6.9516468 -5.116622 0.27053505 4294967040
7.1520023 -5.1224279 0.32612833 4294967040
7.3428578 -5.1244144 0.2874319 4294967040
7.5785913 -5.1261616 0.281225 4294967040
7.7639723 -5.1305008 0.31086364 4294967040
7.9117937 -5.1233382 0.32135585 4294967040
8.1297874 -5.1200638 0.33884203 4294967040
8.2934465 -5.0680547 0.35601395 4294967040
8.4753141 -5.033886 0.25930566 4294967040
8.6727295 -5.027462 0.23058689 4294967040
8.8789616 -5.0672698 0.21686919 4294967040
9.0401525 -5.0948868 0.25098512 4294967040
-0.34077722 -4.8566942 0.32247794 4294967040
5.3798056 -4.8847666 0.27758664 4294967040
5.4038157 -4.9975123 0.21161161 4294967040
8.3958378 -4.9629745 0.38179368 4294967040
8.4275188 -4.9239316 0.35047168 4294967040
8.6460161 -4.9771938 0.21718559 4294967040
8.969059 -4.8747263 0.22054772 4294967040
9.0364065 -4.8537855 0.26492891 4294967040
-0.36608496 -4.7009687 0.31742105 4294967040
-0.11800626 -4.7010326 0.34320572 4294967040
5.3803658 -4.7375636 0.25582078 4294967040
8.4563465 -4.6956158 0.3696723 4294967040
8.7307758 -4.6719522 0.22498688 4294967040
8.9364462 -4.6415815 0.23314631 4294967040
9.0354652 -4.6690536 0.27360368 4294967040
-0.38042641 -4.5384016 0.31153175 4294967040
-0.16332278 -4.516077 0.32920974 4294967040
5.3735156 -4.5259771 0.23925109 4294967040
8.5056248 -4.4406834 0.3581394 4294967040
8.7746801 -4.5202956 0.24639218 4294967040
8.8180752 -4.4577947 0.37437057 4294967040
9.0340872 -4.4674802 0.21024075 4294967040
-0.17201713 -4.3634353 0.32424003 4294954240
5.3646317 -4.2842369 0.25314802 4294967040
8.5167084 -4.2508059 0.36786509 4294967040
8.7460241 -4.3276162 0.21414685 4294967040
8.8685322 -4.285964 0.35185069 4294967040
9.0823689 -4.2477145 0.20763052 4294967040
-0.24098749 -4.1072683 0.32040247 4294967040
5.3644705 -4.0829554 0.24632187 4294967040
8.5598001 -4.0486374 0.36610904 4294967040
8.7340364 -4.0874982 0.22635858 4294967040
8.9333553 -4.0784512 0.21044683 4294967040
9.0333424 -4.1741209 0.20655906 4294967040
-0.28572524 -3.9991896 0.3121658 4294967040
5.3666658 -3.9290357 0.23682725 4294967040
8.5724106 -3.8379169 0.36700171 4294967040
8.6559391 -3.8848009 0.28683397 4294967040
8.9315319 -3.9091156 0.21069913 4294967040
9.0128202 -3.8900092 0.34045237 4294967040
9.5863161 -3.8347561 0.25136676 4294967040
9.6325359 -3.8227582 0.29404038 4294967040
-0.36358812 -3.7935138 0.31374118 4294967040
5.3574514 -3.7774091 0.35411006 4294967040
8.5758162 -3.6701632 0.38464716 4294967040
8.6168909 -3.6683273 0.36951563 4294967040
8.8989439 -3.6785896 0.20687903 4294967040
9.0346546 -3.6856236 0.37321496 4294967040
9.3926258 -3.6278417 0.28555205 4294967040
9.5479488 -3.6283784 0.20507081 4294967040
9.6292229 -3.6227021 0.21368833 4294967040
8.583847 -3.5591717 0.3847627 4294967040
8.6147594 -3.5407033 0.38083756 4294967040
8.8655367 -3.5882065 0.21288909 4294967040
9.092289 -3.4903245 0.35710138 4294967040
9.3621759 -3.4481461 0.33467367 4294967040
9.5447464 -3.5047002 0.21558723 4294967040
9.6488218 -3.4647458 0.24294382 4294967040
8.5424194 -3.3113952 0.20193529 4294967040
8.702301 -3.3055325 0.25193697 4294967040
8.8844624 -3.2781334 0.20585535 4294967040
9.1512537 -3.3221464 0.25335726 4294967040
9.2873278 -3.2365232 0.2497154 4294967040
9.5425415 -3.2423105 0.21029437 4294967040
9.6464901 -3.2086651 0.23137845 4294967040
5.7523236 -3.1512377 0.27481738 4294967040
5.9177918 -3.1635742 0.29069975 4294967040
9.1880379 -3.1814318 0.3545388 4294967040
9.2474937 -3.1514139 0.35237265 4294967040
9.4971924 -3.1740768 0.32459432 4294967040
9.7147827 -3.0464387 0.28062177 4294967040
5.771657 -2.9546428 0.22566709 4294967040
5.8830833 -2.9260964 0.24381097 4294967040
9.2884521 -2.8797803 0.2422841 4294967040
9.7066631 -2.9143753 0.27332097 4294967040
5.3919077 -2.7291951 0.34031683 4294967040
9.3536148 -2.6869349 0.21233478 4294967040
9.5864334 -2.634315 0.24112153 4294967040
9.6323357 -2.7147403 0.27512789 4294967040
9.3897266 -2.5463719 0.20668164 4294967040
9.5881882 -2.5499473 0.26522386 4294967040
9.7199249 -2.5023024 0.27380097 4294967040
0.1642838 -2.2062216 0.23635441 4294967040
4.7723708 -2.2224188 0.28590402 4294967040
4.96382 -2.2277353 0.3184765 4294967040
5.0922999 -2.2335815 0.24668904 4294967040
5.2108798 -2.2388291 0.31491688 4294967040
9.2995729 -2.306407 0.20807505 4294967040
9.4888706 -2.2594666 0.21096498 4294967040
9.751173 -2.2612662 0.27968371 4294967040
-3.5521426 -2.141165 0.22311735 4294967040
0.042357489 -2.0155675 0.26293951 4294967040
0.31348705 -2.156667 0.35909411 4294967040
0.47964486 -2.174428 0.2940999 4294967040
0.62108362 -2.1652615 0.25817427 4294967040
2.1009784 -2.1778984 0.30214149 4294967040
2.9902673 -2.0964828 0.31635296 4294967040
4.1567802 -2.0714066 0.25717521 4294967040
4.5723467 -2.1873441 0.26513362 4294967040
4.6751094 -2.1963403 0.27448756 4294967040
4.877584 -2.1962905 0.27186584 4294967040
9.5250397 -2.1789136 0.21028072 4294967040
9.7486992 -2.1076794 0.27949518 4294967040
-0.42158651 -1.8348292 0.33848533 4294967040
-0.22913752 -1.8712435 0.33358079 4294967040
-0.1206089 -1.9500599 0.24915193 4294967040
0.027518958 -1.9927335 0.33703595 4294967040
4.0681891 -1.8516846 0.30287319 4294967040
9.5172033 -1.8214607 0.206108 4294967040
9.7530355 -1.9580773 0.27981466 4294967040
-0.60792923 -1.6738836 0.23630199 4294967040
-0.46877953 -1.7745175 0.27381909 4294967040
2.704227 -1.7072709 0.27978057 4294967040
3.492192 -1.6582175 0.20196019 4294967040
3.605788 -1.6920314 0.256917 4294967040
9.4692774 -1.732493 0.21168995 4294967040
9.7286549 -1.6730644 0.35356149 4294967040
2.3710194 -1.4830542 0.20971319 4294967040
2.7276075 -1.5740812 0.34520844 4294967040
2.8029003 -1.5658104 0.24828973 4294967040
4.0882668 -1.5059098 0.22576182 4294967040
9.3589382 -1.4333036 0.20989913 4294967040
9.5185995 -1.4649487 0.21829101 4294967040
9.7584705 -1.4360094 0.26246279 4294967040
9.8031464 -1.4597766 0.22677988 4294967040
2.365154 -1.371243 0.22281492 4294967040
2.7507854 -1.2235068 0.21659541 4294967040
4.1326466 -1.2842643 0.38980818 4294967040
8.9916553 -1.226414 0.20761833 4294967040
9.0216084 -1.2613372 0.22819799 4294967040
9.3661366 -1.2367215 0.29016334 4294967040
9.5557442 -1.2535644 0.27530819 4294967040
9.7117558 -1.2290055 0.28016376 4294967040
9.8718023 -1.2795241 0.22829705 4294967040
2.3807421 -1.1418099 0.21841095 4294967040
2.4655972 -1.099084 0.2062941 4294967040
2.609762 -1.1561761 0.21894154 4294967040
8.9930248 -1.1766138 0.22306296 4294967040
9.0512314 -1.0831347 0.21162966 4294967040
9.2614908 -1.0513368 0.26571992 4294967040
9.5198631 -1.1017575 0.27029616 4294967040
9.7607594 -1.0259914 0.28080469 4294967040
9.8495207 -1.194683 0.31235927 4294967040
2.3906136 -0.89773434 0.21767622 4294967040
2.5279047 -0.96822071 0.23726711 4294967040
2.6084981 -0.96410954 0.22475812 4294967040
9.0758352 -0.84637386 0.20913434 4294967040
9.329586 -0.92664886 0.29538137 4294967040
9.5161047 -0.89674592 0.2601414 4294967040
9.7550087 -0.81501079 0.28836432 4294967040
2.390645 -0.78517973 0.23828162 4294967040
2.4303293 -0.7842828 0.23626061 4294967040
4.1590738 -0.660097 0.25187212 4294967040
9.0948792 -0.78758878 0.21310452 4294967040
9.7540464 -0.72356206 0.27892271 4294967040
9.7534714 -0.45734695 0.2823832 4294967040
9.8059072 -0.41654736 0.38922954 4294967040
9.7570276 -0.26099619 0.28093886 4294967040
9.8007469 -0.34846374 0.37760562 4294967040
9.7567902 -0.065656953 0.28663856 4294967040
9.801939 -0.15821856 0.37100112 4294967040
9.7600269 0.12863311 0.28507358 4294967040
9.8011913 0.10259189 0.2617442 4294967040
9.7521791 0.35348922 0.28303203 4294967040
9.8034286 0.29161394 0.29789656 4294967040
-4.2315302 0.53831077 0.33983099 4294967040
-4.1920118 0.47324419 0.30468395 4294967040
9.7619238 0.49799302 0.28572512 4294967040
9.8038607 0.56891191 0.38002378 4294967040
-4.2549024 0.71465075 0.35335284 4294967040
6.4434109 0.67759013 0.21226555 4294967040
6.6760292 0.69629091 0.20427459 4294967040
7.9109631 0.71822435 0.23699079 4294967040
8.051733 0.76793492 0.2365256 4294967040
9.477355 0.78730386 0.30160889 4294967040
9.7635784 0.75539023 0.28905594 4294967040
9.8061409 0.74199367 0.39443243 4294967040
-4.2536964 0.86576962 0.36042818 4294967040
-0.44146407 0.97775209 0.25865754 4294967040
9.5030403 0.85093105 0.26270932 4294967040
9.7775078 0.98414922 0.29678205 4294967040
9.8068733 0.92540634 0.27973717 4294967040
-4.2564144 1.0402161 0.36636567 4294967040
-0.72375256 1.1658108 0.29699841 4294967040
-0.46793705 1.0404983 0.25448138 4294967040
4.1438622 1.0417225 0.38271526 4294967040
4.9888015 1.1709286 0.27320293 4294967040
5.997766 1.1924683 0.28802124 4294967040
6.0726404 1.1695321 0.22557861 4294967040
6.2674885 1.1505857 0.28413856 4294967040
6.9323254 1.1869943 0.20886184 4294967040
7.3907828 1.0841476 0.23165834 4294967040
7.4151478 1.0758063 0.22769153 4294967040
9.594245 1.1744066 0.23613314 4294967040
9.7707033 1.0290772 0.28218305 4294967040
9.8447685 1.0770804 0.28392971 4294967040
-4.2096367 1.3345664 0.3480131 4294967040
-4.1949444 1.2639585 0.34739983 4294967040
-0.72365212 1.2212539 0.37323412 4294967040
4.3580437 1.3355985 0.24901322 4294967040
4.4754534 1.3754811 0.24552509 4294967040
5.1919203 1.3155572 0.26787925 4294967040
5.2433796 1.3175867 0.31069466 4294967040
5.5951982 1.3165025 0.3186214 4294967040
5.6276937 1.277081 0.35862297 4294967040
6.0671978 1.2390239 0.24027836 4294967040
9.7870026 1.2755522 0.22300416 4294967040
9.8719654 1.2620645 0.25056052 4294967040
-4.7053499 1.5481043 0.26353794 4294967040
-4.2129245 1.5249894 0.35404262 4294967040
-4.1956968 1.4466538 0.36557251 4294967040
3.9324269 1.4585385 0.31930786 4294967040
9.5835838 1.4554448 0.21140483 4294967040
9.795619 1.4859728 0.21309006 4294967040
9.9421158 1.5578008 0.3004815 4294967040
-4.7015281 1.672519 0.26630509 4294967040
-4.2129521 1.6658876 0.36139995 4294967040
-4.1969709 1.6381509 0.36860576 4294967040
-0.53425783 1.7712238 0.38188359 4294955008
4.1071243 1.7021154 0.39100623 4294967040
6.7711158 1.7408552 0.20645313 4294967040
6.9338393 1.7626797 0.27288601 4294967040
7.1159453 1.7698929 0.23901707 4294967040
7.2960186 1.7538867 0.21161476 4294967040
7.5318913 1.7512301 0.21260688 4294967040
7.6823692 1.7408633 0.21353455 4294967040
7.8384256 1.739827 0.20414847 4294967040
9.4726353 1.7687016 0.20343238 4294967040
9.7077188 1.6732695 0.23977461 4294967040
9.8856411 1.6525016 0.29863676 4294967040
-7.2427821 1.984998 0.21065825 4279697152
-4.7133327 1.8050138 0.28281009 4294967040
-0.51236951 1.9114449 0.34271568 4293828096
2.3864331 1.957942 0.29157442 4294967040
4.0787764 1.9196389 0.38425824 4294967040
6.953023 1.8839111 0.2761488 4294967040
7.1373062 1.8477012 0.27468616 4294967040
7.2868786 1.9236189 0.28565806 4294967040
7.5263557 1.9504982 0.29274815 4294967040
7.717351 1.9610462 0.29543602 4294967040
7.8361521 1.9265745 0.30014092 4294967040
8.1732388 1.9823568 0.21301222 4294967040
8.2319565 1.9935007 0.25286999 4294967040
9.1124687 1.9729807 0.23134649 4294967040
9.2634106 1.8851664 0.20576784 4294967040
9.5155869 1.8934882 0.22598338 4294967040
9.6762657 1.8793285 0.22879091 4294967040
9.9026842 1.821789 0.30119684 4294967040
-7.2645588 2.0666981 0.20532638 4279697152
-4.701921 2.1097875 0.2897436 4294967040
-0.50525993 2.1515512 0.32230633 4292648192
2.3868403 2.078599 0.32922077 4294967040
2.4031024 2.0843375 0.28352386 4294967040
4.1270022 2.0717843 0.37884489 4294967040
6.2779713 2.0641496 0.36312926 4294967040
6.9342813 2.1384199 0.30273265 4294967040
7.1590433 2.0833209 0.29685974 4294967040
7.2605238 2.1591823 0.30622229 4294967040
7.5473571 2.0866454 0.30592951 4294967040
7.6831293 2.1112266 0.30158719 4294967040
7.9039974 2.0555439 0.30078483 4294967040
8.1930647 2.0034966 0.25142479 4294967040
8.2442608 2.0045533 0.26363492 4294967040
9.1040201 2.105581 0.23053202 4294967040
9.2721977 2.0422926 0.22842701 4294967040
9.4801598 2.1133182 0.223979 4294967040
-7.2342882 2.2169142 0.2078706 4279697152
-7.0804396 2.3480101 0.20298624 4279697152
-6.908855 2.3571637 0.2072622 4279697152
-4.6900544 2.3623471 0.28807497 4294967040
2.3875408 2.3209121 0.22479098 4294967040
2.4015167 2.3636742 0.23139928 4294967040
5.1031876 2.2393031 0.29007339 4294967040
5.5220823 2.3331647 0.37990558 4294967040
5.7725625 2.2550442 0.20151775 4294967040
5.9343119 2.283566 0.25018626 4294967040
6.0799818 2.2509961 0.21225983 4294967040
6.3068218 2.2728763 0.34318659 4294967040
6.4550667 2.2663321 0.3366825 4294967040
6.6157932 2.3329949 0.25468925 4294967040
9.2923641 2.3571587 0.23469546 4294967040
9.4818687 2.2458463 0.30424827 4294967040
-7.8153687 2.4394786 0.20489092 4279697152
-7.7310514 2.4451573 0.21920821 4279697152
-7.5237856 2.4373899 0.20990086 4279697152
-7.3069758 2.4025183 0.21578635 4279697152
-7.125957 2.4267282 0.20610674 4279697152
-6.986587 2.4970167 0.20485692 4279697152
-4.6906662 2.5294695 0.28729171 4294967040
2.3981967 2.42875 0.21679781 4294967040
2.4049129 2.5584669 0.22079563 4294967040
4.9862709 2.5595117 0.26369405 4294967040
5.1054344 2.5445557 0.34385046 4294967040
6.389502 2.5029733 0.39076346 4294967040
6.5137572 2.464817 0.24505913 4294967040
8.0832043 2.5256166 0.34275049 4294967040
8.3164749 2.5404201 0.35571051 4294967040
8.422493 2.5685697 0.36301124 4294967040
9.3386765 2.484478 0.22163598 4294967040
9.4747162 2.4155319 0.31871268 4294967040
-4.6943078 2.6854622 0.28933385 4294967040
2.1868691 2.7535491 0.35842696 4294967040
2.2576957 2.758368 0.36037987 4294967040
2.4063878 2.7764421 0.22821414 4294967040
3.1410146 2.7488585 0.26181984 4294967040
3.3061113 2.764564 0.3307302 4294967040
3.5367069 2.7563305 0.35141748 4294967040
3.6911089 2.7756863 0.32096079 4294967040
3.8514214 2.7490063 0.31538504 4294964992
4.9798341 2.7755637 0.26750308 4294967040
5.0366812 2.7252319 0.32957482 4294967040
6.3773708 2.6756892 0.39455169 4294967040
6.4337749 2.7622507 0.36438721 4294967040
8.0652313 2.7875042 0.36583993 4294967040
8.3696051 2.6159375 0.3631646 4294967040
8.5664711 2.7004948 0.25973329 4294967040
8.7582159 2.7663684 0.25187695 4294967040
8.923811 2.7412186 0.2948488 4294967040
9.1470051 2.7588131 0.31282556 4294967040
9.2934055 2.6877799 0.27249789 4294967040
9.5040684 2.6485324 0.23250687 4294967040
-6.9508681 2.8692324 0.21023303 4279697152
-4.6948519 2.8756664 0.29627204 4294967040
2.3074541 2.8162355 0.31305987 4294967040
2.4144428 2.9797318 0.23887229 4294967040
2.642242 2.8161645 0.27084517 4294967040
3.1844594 2.8735459 0.26098233 4294967040
3.3314018 2.8490343 0.31963426 4294967040
3.5029912 2.8560438 0.32895815 4294967040
3.8688772 2.8067362 0.32177252 4294964480
4.1770854 2.9538791 0.31171811 4294965760
4.2101393 2.9615736 0.2373884 4294967040
4.9783316 2.8257079 0.34634084 4294967040
5.0049238 2.8114154 0.30511293 4294967040
6.3858819 2.8043752 0.38855132 4294967040
6.4472632 2.8493767 0.33932093 4294967040
6.7769547 2.9801273 0.39710659 4294967040
6.8374906 2.954998 0.38115004 4294967040
7.1013074 2.9594872 0.38722214 4294967040
7.2897997 2.9609609 0.39176223 4294967040
7.4688034 2.9644461 0.39725405 4294967040
7.708744 2.8834934 0.36885971 4294967040
7.8766251 2.8955109 0.37253973 4294967040
8.0376959 2.8876603 0.37935555 4294967040
8.3340549 2.9220166 0.37409377 4294967040
8.5500727 2.9685981 0.21945798 4294967040
8.7538776 2.94769 0.21749662 4294967040
8.935421 2.9304118 0.24926093 4294967040
9.1711798 2.878597 0.27606505 4294967040
9.3068066 2.9591889 0.23094714 4294967040
9.4670706 2.8723054 0.2441089 4294967040
-4.732779 3.0338678 0.28448826 4294967040
2.397038 3.0402741 0.2385931 4294967040
2.4233925 3.1786261 0.23947358 4294967040
5.3654289 3.1094005 0.36890414 4294967040
5.8850307 3.1246846 0.38608482 4294967040
2.3965716 3.3935137 0.28424513 4294967040
2.4258513 3.3597093 0.25443354 4294967040
4.9495811 3.2280951 0.28069085 4294964736
5.1766219 3.3165166 0.29953554 4294967040
5.3185534 3.3656144 0.32814187 4294967040
5.4546247 3.3482063 0.2995387 4294967040
5.9136887 3.249788 0.39639473 4294967040
6.5751057 3.3335657 0.20369709 4294967040
6.652678 3.3548508 0.20719345 4294967040
2.3106694 3.4998541 0.35439539 4294967040
2.4287901 3.4696436 0.26306301 4294967040
4.9344797 3.5380669 0.30509239 4294967040
5.2552266 3.4045866 0.29878202 4294967040
9.2642832 3.543334 0.25783521 4294967040
2.425272 3.6494279 0.29116973 4294967040
9.9405613 4.5113578 0.31602266 4294949632
2.1586871 4.7904758 0.26988387 4294967040
2.3538761 4.7876263 0.25495809 4294967040
4.1560979 4.7318096 0.39406669 4294967040
4.2561369 4.7258997 0.29072571 4294967040
9.9540377 4.6771302 0.30568147 4294956800
-8.6192961 4.8346643 0.25062379 4278321152
-8.5495205 4.9108925 0.25087148 4278321152
2.1431575 4.8012404 0.24770054 4294967040
2.3381782 4.8141513 0.30163643 4294967040
2.4550264 4.9991002 0.34094673 4294967040
2.3795509 5.129704 0.33656335 4294967040
2.4424586 5.1090946 0.26856136 4294967040
2.6972477 5.1784592 0.34234393 4294967040
2.842186 5.1728358 0.3191658 4294967040
2.4480326 5.2271538 0.29139951 4294967040
2.642139 5.212203 0.38823962 4294967040
2.9104586 5.2049389 0.34065199 4294967040
3.0153883 5.3196983 0.30244082 4294967040
4.3176494 5.375628 0.3335923 4294967040
3.0146754 5.4158783 0.30266234 4294967040
3.7865639 5.568646 0.34437913 4294967040
3.8711636 5.5390134 0.33068845 4294967040
3.7267971 5.6818571 0.27064109 4294967040
3.807111 5.6263943 0.32020992 4294967040
4.3289504 5.6738391 0.25136793 4294967040
6.1039958 5.6571608 0.21326834 4294967040
3.7054272 5.9864693 0.27106991 4294967040
4.2797022 5.8839779 0.24371225 4294967040
3.5249796 6.1668701 0.21177584 4294967040
3.6830015 6.0391636 0.21177468 4294967040
4.2923608 6.066824 0.26158476 4294967040
4.6732864 6.1615667 0.21109343 4294967040
5.1406698 6.1242437 0.20070453 4294967040
5.2442856 6.1423211 0.22472492 4294967040
5.5766239 6.1779428 0.24255763 4294967040
5.6485 6.1287727 0.2541208 4294967040
5.9145546 6.183217 0.26237255 4294967040
6.0600004 6.1624689 0.25509423 4294967040
2.3755927 6.3604069 0.20580326 4294967040
2.471046 6.3809738 0.20778969 4294967040
2.9884784 6.3792686 0.29282075 4294967040
3.1638751 6.3392982 0.22191679 4294967040
3.3298965 6.3441005 0.27344117 4294967040
3.5043635 6.3406382 0.29697078 4294967040
3.6237016 6.3767567 0.21596053 4294967040
4.2579355 6.3160639 0.37860566 4294967040
4.4612188 6.3142314 0.37264132 4294967040
4.7110119 6.2661657 0.30383152 4294967040
4.9699173 6.3293915 0.22403091 4294967040
5.0875802 6.3125663 0.24935631 4294967040
5.2963977 6.2430549 0.25353134 4294967040
5.5749497 6.2656164 0.25575161 4294967040
5.7128043 6.2275486 0.25021321 4294967040
2.9232378 6.4047785 0.37587044 4294967040
3.0609274 6.4036036 0.37711662 4294967040
3.2432222 6.4045506 0.37022567 4294967040
3.6318245 6.4046926 0.21436065 4294967040
-0.31378669 -6.455338 0.41605318 4294967040
-0.16437425 -6.5177746 0.41926026 4294967040
-0.14323299 -5.0504465 0.54738683 4294967040
5.369307 -5.1005278 0.55485809 4294967040
5.5231113 -5.1241064 0.49614227 4294967040
5.7088871 -5.1296148 0.53852403 4294967040
5.8650751 -5.1281424 0.55722809 4294967040
6.0606127 -5.1272659 0.564614 4294967040
6.3258877 -5.1293831 0.53283 4294967040
6.5607152 -5.1274166 0.50819826 4294967040
6.7123222 -5.127964 0.52417612 4294967040
6.9299545 -5.1302977 0.53654087 4294967040
7.1673527 -5.1330686 0.55744028 4294967040
7.2967167 -5.1347136 0.57742524 4294967040
7.4909515 -5.135447 0.57833546 4294967040
7.7651367 -5.133873 0.47141621 4294967040
7.9202547 -5.1300468 0.47584993 4294967040
8.1461496 -5.1260176 0.49785382 4294967040
8.2269897 -5.1276884 0.49726266 4294967040
8.522049 -5.0247192 0.54246902 4294967040
8.6837063 -5.0525122 0.55679053 4294967040
8.9342461 -5.1290655 0.40414837 4294967040
9.0088015 -5.0029068 0.41068685 4294967040
-0.51931554 -4.8226051 0.49462897 4294967040
-0.32032359 -4.8538561 0.52924657 4294967040
5.3660059 -4.8550901 0.57681829 4294967040
8.3988781 -4.904604 0.45325553 4294967040
8.4313688 -4.9329505 0.5179379 4294967040
8.8861122 -4.9168959 0.56311268 4294967040
9.0607967 -4.893075 0.50060058 4294967040
-0.61922711 -4.6521449 0.49158844 4294967040
-0.46338704 -4.6714773 0.50786102 4294967040
-0.34663129 -4.7109227 0.51223552 4294967040
5.3648243 -4.6467166 0.4993943 4294967040
6.4593477 -4.7770462 0.45769167 4294967040
8.5165176 -4.6827049 0.49953878 4294967040
9.1128159 -4.6393685 0.59375483 4294967040
-0.6839056 -4.478828 0.49170995 4294967040
-0.5300076 -4.5238686 0.51492906 4294967040
5.362525 -4.4536324 0.53118891 4294967040
8.4890842 -4.5047607 0.4893921 4294967040
8.7961006 -4.4777803 0.53139776 4294967040
8.8239145 -4.4155779 0.5508194 4294967040
9.044301 -4.4525332 0.40411735 4294967040
-0.66197926 -4.2715979 0.50828815 4294967040
-0.58281696 -4.3447223 0.51810282 4294967040
5.3604178 -4.3082461 0.51994395 4294967040
8.4893723 -4.2563844 0.48866403 4294967040
9.1473484 -4.3667617 0.59546405 4294967040
-0.84566563 -4.0938601 0.48759103 4294967040
-0.76693547 -4.127142 0.49850702 4294967040
-0.5954352 -4.0530715 0.50491053 4294967040
5.3581896 -4.0997958 0.48054701 4294967040
8.4912939 -4.0849223 0.48195136 4294967040
-0.9094364 -3.9859517 0.50723541 4294967040
-0.68764108 -3.9011464 0.50749439 4294967040
5.356679 -3.8976078 0.48462498 4294967040
6.9728322 -3.9399714 0.42602715 4294967040
8.5156326 -3.9253049 0.48585564 4294967040
8.9861813 -3.8473923 0.54609239 4294967040
9.0029869 -3.8909273 0.46157253 4294967040
-0.77353138 -3.7196009 0.50209653 4294967040
5.3503494 -3.7905905 0.4863739 4294967040
8.5531769 -3.7032595 0.45643276 4294967040
8.7152281 -3.6661172 0.52233034 4294967040
8.8946857 -3.7099547 0.4592343 4294967040
9.0406017 -3.676162 0.54614788 4294967040
9.3466063 -3.6266749 0.48167813 4294967040
9.4625378 -3.615881 0.50880319 4294967040
9.6347914 -3.6822162 0.41852635 4294967040
-1.0400572 -3.4744487 0.5032506 4294967040
-0.96440494 -3.5793405 0.50156236 4294967040
8.5745134 -3.5269508 0.44792017 4294967040
8.6376381 -3.5273836 0.47898793 4294967040
9.0966148 -3.4930947 0.53240585 4294967040
9.298542 -3.4070768 0.47222561 4294967040
9.4459934 -3.5136638 0.54330325 4294967040
9.6255274 -3.5689962 0.42998654 4294967040
-1.1099666 -3.3140438 0.50680727 4294967040
8.5670757 -3.3720756 0.47698802 4294967040
