# .PCD v0.7 - Point Cloud Data file format
VERSION 0.7
FIELDS x y z rgb
SIZE 4 4 4 4
TYPE F F F U
COUNT 1 1 1 1
WIDTH 1088
HEIGHT 1
VIEWPOINT 0 0 0 1 0 0 0
POINTS 1088
DATA ascii
23.836086 -3.3062668 -0.23865558 4294967040
-1.0327277 -3.1883283 -0.21042962 4294967040
-0.95132941 -3.16623 -0.22226153 4294967040
-0.6121546 -3.1679649 -0.35701245 4294967040
-0.51574445 -3.1488576 -0.32393789 4294967040
-0.054410785 -3.0803752 -0.20891328 4294967040
0.001593446 -3.0077028 -0.20468867 4294967040
2.9191308 -3.0150275 -0.26642942 4294967040
3.1587539 -3.0586553 -0.30480391 4294967040
3.26051 -3.0895839 -0.34564936 4294967040
3.5118747 -3.0928674 -0.312249 4294967040
3.6420035 -3.0835848 -0.21316481 4294967040
3.9185574 -3.119791 -0.32280189 4294967040
4.0834746 -3.1381373 -0.25787336 4294967040
4.3755131 -3.1863227 -0.27758974 4294967040
4.5547805 -3.0626416 -0.24063537 4294967040
4.7344213 -3.0932238 -0.33603916 4294967040
4.8213444 -3.1433411 -0.36650133 4294967040
6.3204575 -3.1154602 -0.30941772 4294967040
6.4365263 -3.1695802 -0.29553086 4294967040
6.6531415 -3.1185923 -0.266215 4294967040
8.2853565 -3.0776892 -0.2150698 4294967040
8.4623623 -3.0714226 -0.20066956 4294967040
8.9953432 -3.1200323 -0.22751451 4294967040
9.0138607 -3.0630779 -0.23451211 4294967040
9.5792093 -3.1101789 -0.25346422 4294967040
10.570639 -3.087182 -0.25879171 4294967040
10.645552 -3.0441751 -0.24275607 4294967040
10.993042 -3.1712768 -0.2480786 4294967040
11.082771 -3.1575189 -0.26586798 4294967040
11.257776 -3.0581024 -0.27148747 4294967040
11.496351 -3.1392727 -0.29614908 4294967040
11.732824 -3.1009817 -0.27648401 4294967040
11.941511 -3.100194 -0.28999531 4294967040
12.013643 -3.0579593 -0.28699294 4294967040
12.32021 -3.0683892 -0.25260076 4294967040
12.419485 -3.0940099 -0.35460192 4294967040
12.647489 -3.116365 -0.26304275 4294967040
12.915981 -3.1143446 -0.39683604 4294967040
15.938596 -3.1184461 -0.24921711 4294967040
16.352917 -3.0639322 -0.34402823 4294967040
19.166512 -3.1335323 -0.36882401 4294967040
21.453993 -3.1510038 -0.39219704 4294967040
21.609678 -3.1937878 -0.38998678 4294967040
22.689796 -3.0422873 -0.399176 4294967040
23.320229 -3.1230829 -0.39949057 4294967040
23.559294 -3.1197734 -0.39763743 4294967040
23.654274 -3.1581814 -0.39576641 4294967040
23.826927 -3.1391327 -0.2989468 4294967040
-3.0878491 -2.8178024 -0.27682078 4294967040
-0.70281184 -2.9788227 -0.21348974 4294967040
-0.43400043 -2.9817963 -0.2653254 4294967040
-0.3967768 -2.9673281 -0.21021667 4294967040
-0.046241418 -2.9870729 -0.20526494 4294967040
0.0033049127 -2.9875937 -0.20663467 4294967040
2.9464364 -2.829062 -0.25873253 4294967040
3.1102035 -2.9370685 -0.2675741 4294967040
3.2407622 -2.8809891 -0.30467677 4294967040
3.6594837 -2.9203224 -0.35723612 4294967040
3.9449458 -2.8564062 -0.33764935 4294967040
4.0814686 -2.8604312 -0.28813654 4294967040
4.3901796 -2.8586106 -0.31572154 4294967040
4.5116806 -2.9066315 -0.34248766 4294967040
4.6396608 -2.8717892 -0.3874222 4294967040
4.8084617 -2.9557004 -0.3679291 4294967040
5.3337102 -2.8883164 -0.24057104 4294967040
8.4584198 -2.9249504 -0.20184857 4294967040
8.6006947 -2.8170497 -0.21112372 4294967040
8.9031601 -2.8663406 -0.27622864 4294967040
9.0470257 -2.9435182 -0.26363674 4294967040
9.5998707 -2.9811881 -0.22161426 4294967040
9.6206989 -2.8710415 -0.3335236 4294967040
10.592304 -2.8456566 -0.24611749 4294967040
10.678261 -2.9311504 -0.24855939 4294967040
10.812593 -2.8329139 -0.37678492 4294967040
11.161438 -2.9100409 -0.3245841 4294967040
11.362932 -2.9250391 -0.25843197 4294967040
11.562241 -2.8783488 -0.36317068 4294967040
11.721355 -2.8852329 -0.29925352 4294967040
11.844591 -2.9455082 -0.35856342 4294967040
12.111261 -2.9868441 -0.29034525 4294967040
12.302332 -2.9822459 -0.27008832 4294967040
12.789343 -2.8481169 -0.32556367 4294967040
12.854857 -2.9203062 -0.38202873 4294967040
15.353127 -2.8362782 -0.21806778 4294967040
15.716398 -2.832489 -0.3663671 4294967040
15.952709 -2.9423437 -0.34848714 4294967040
16.163074 -2.9314723 -0.28606364 4294967040
16.296761 -2.9612041 -0.33425802 4294967040
16.437132 -2.9631901 -0.37171552 4294967040
21.123463 -2.8473632 -0.35858792 4294967040
21.259325 -2.8158293 -0.39126641 4294967040
21.413004 -2.9212921 -0.34543729 4294967040
22.301785 -2.8022149 -0.39255485 4294967040
22.575768 -2.9380164 -0.39939746 4294967040
22.68672 -2.9121156 -0.39818063 4294967040
23.749748 -2.9430404 -0.39772826 4294967040
23.909374 -2.8853774 -0.34760013 4294967040
-3.0674472 -2.6117349 -0.21490666 4294967040
1.5861084 -2.7261665 -0.27335948 4294967040
1.6518226 -2.6400981 -0.2894049 4294967040
2.9320006 -2.7071109 -0.27293652 4294967040
3.0619273 -2.7422385 -0.28613541 4294967040
3.2337813 -2.7713437 -0.29309344 4294967040
3.7641745 -2.7726068 -0.37286338 4294967040
3.9420652 -2.7462485 -0.32068714 4294967040
4.0516057 -2.7586076 -0.31798053 4294967040
4.3366795 -2.7198176 -0.31558231 4294967040
4.409133 -2.7095873 -0.3461234 4294967040
5.0833449 -2.7040553 -0.25240475 4294967040
5.3481693 -2.7023559 -0.2469382 4294967040
6.9161663 -2.6925149 -0.25408202 4294967040
7.1251307 -2.6871529 -0.25629166 4294967040
7.2976804 -2.6781702 -0.23432758 4294967040
7.494349 -2.6487222 -0.22109953 4294967040
7.6933489 -2.7244129 -0.20807922 4294967040
7.9894996 -2.6899986 -0.21026337 4294967040
8.078845 -2.627708 -0.21413547 4294967040
8.2023592 -2.7124617 -0.21108504 4294967040
8.9633474 -2.7203383 -0.28877336 4294967040
9.0588017 -2.7373531 -0.28392434 4294967040
9.6361198 -2.7652724 -0.38830847 4294967040
10.571958 -2.6163454 -0.2099257 4294967040
10.617055 -2.692728 -0.24476175 4294967040
10.816587 -2.7882974 -0.38351023 4294967040
11.33297 -2.7288256 -0.33904105 4294967040
11.554956 -2.7742329 -0.32549202 4294967040
11.623449 -2.7222085 -0.34968355 4294967040
11.816602 -2.7944157 -0.28478733 4294967040
14.646111 -2.6456652 -0.36314845 4294967040
15.1847 -2.6390679 -0.33594936 4294967040
15.327532 -2.6556358 -0.28550473 4294967040
15.724127 -2.6857142 -0.29241076 4294967040
15.946039 -2.6287169 -0.26388043 4294967040
17.528023 -2.7474608 -0.20143902 4294967040
17.709316 -2.6699138 -0.38969487 4294967040
20.748873 -2.7112939 -0.39530322 4294967040
21.104736 -2.6981575 -0.3886019 4294967040
21.245277 -2.7191455 -0.39522135 4294967040
21.401552 -2.7289665 -0.38857883 4294967040
22.261353 -2.7244511 -0.39310378 4294967040
22.735712 -2.713414 -0.39723715 4294967040
22.935741 -2.7142181 -0.39589375 4294967040
23.093504 -2.6205783 -0.39611018 4294967040
23.349665 -2.6321845 -0.39978504 4294967040
23.713757 -2.6752188 -0.39651608 4294967040
23.920536 -2.7744153 -0.3349472 4294967040
-3.4213138 -2.5098214 -0.351491 4294967040
-3.3969355 -2.5060718 -0.3483507 4294967040
-3.0995049 -2.5738347 -0.22042933 4294967040
1.6676992 -2.5381222 -0.27599508 4294967040
2.9610496 -2.5639982 -0.23799461 4294967040
3.7269442 -2.5927198 -0.20577408 4294967040
5.0774851 -2.5744045 -0.36664003 4294967040
5.4851213 -2.5904341 -0.3492215 4294967040
6.1393261 -2.4211869 -0.23331749 4294967040
6.9828434 -2.5419188 -0.22608522 4294967040
7.0212135 -2.5109491 -0.25521532 4294967040
7.5244975 -2.5733764 -0.22372113 4294967040
7.6782188 -2.5255642 -0.22345755 4294967040
7.9493217 -2.4700413 -0.21208739 4294967040
8.1110058 -2.4917593 -0.20999944 4294967040
9.0599899 -2.4103091 -0.24927683 4294967040
9.6746254 -2.5224314 -0.38963282 4294967040
9.8618221 -2.4286313 -0.32605475 4294967040
10.020389 -2.4519598 -0.26494345 4294967040
10.352917 -2.4957438 -0.33306196 4294967040
10.560231 -2.5707011 -0.24260806 4294967040
10.61883 -2.5749602 -0.25019705 4294967040
14.591991 -2.4388177 -0.34693599 4294967040
14.619326 -2.4722102 -0.37331337 4294967040
14.872929 -2.4441128 -0.35728505 4294967040
15.073421 -2.4752588 -0.33312237 4294967040
15.343229 -2.5187278 -0.32737386 4294967040
15.511811 -2.536041 -0.31752148 4294967040
15.6833 -2.5466323 -0.30497867 4294967040
15.812269 -2.5735655 -0.26581976 4294967040
17.371174 -2.5330172 -0.21481636 4294967040
17.557383 -2.4420357 -0.38421535 4294967040
17.662155 -2.4614105 -0.38919044 4294967040
17.822872 -2.4119 -0.28265634 4294967040
21.145027 -2.5309868 -0.39508495 4294967040
21.242622 -2.5049152 -0.38982216 4294967040
22.108084 -2.4581401 -0.3960301 4294967040
22.273998 -2.4741316 -0.38923907 4294967040
22.451277 -2.4231033 -0.38232821 4294967040
22.926607 -2.5235183 -0.39123222 4294967040
23.077412 -2.4861221 -0.39011604 4294967040
23.260355 -2.4913297 -0.39585441 4294967040
23.459194 -2.417455 -0.39845821 4294967040
23.756577 -2.5339584 -0.39438266 4294967040
23.944983 -2.5856595 -0.31969547 4294967040
28.544497 -2.5192406 -0.20672232 4294967040
28.74213 -2.4657648 -0.20925343 4294967040
-3.0914421 -2.377367 -0.21059313 4294967040
-0.69807959 -2.2453437 -0.27323249 4294967040
1.7001921 -2.3412123 -0.30215073 4294967040
5.4903479 -2.2610891 -0.33200336 4294967040
6.0928884 -2.3891187 -0.2401019 4294967040
6.3709478 -2.2705438 -0.31697243 4294967040
6.5816522 -2.2447743 -0.30597782 4294967040
6.7611752 -2.2401931 -0.31899416 4294967040
6.975791 -2.3515587 -0.22755244 4294967040
7.0289612 -2.3625884 -0.35950577 4294967040
7.9502416 -2.3211038 -0.22954626 4294967040
8.0411396 -2.3466482 -0.22040954 4294967040
8.3715334 -2.2326999 -0.2225982 4294967040
8.5405426 -2.2265532 -0.2743181 4294967040
8.72435 -2.340538 -0.22964334 4294967040
9.0928249 -2.2549477 -0.22531125 4294967040
10.594373 -2.3642166 -0.32586649 4294967040
10.698383 -2.2093527 -0.31417403 4294967040
13.187994 -2.2190216 -0.34476858 4294955008
13.350876 -2.2526383 -0.3861981 4294967040
13.494878 -2.283452 -0.31633365 4294967040
13.668015 -2.2018366 -0.32863802 4294967040
14.58523 -2.3563828 -0.28286427 4294967040
14.776131 -2.3894548 -0.32656449 4294967040
14.922781 -2.260663 -0.35063136 4294967040
15.084598 -2.3411331 -0.3245298 4294967040
15.256796 -2.3300242 -0.31983519 4294967040
17.353254 -2.3252218 -0.20933789 4294967040
17.458187 -2.2936745 -0.21158496 4294967040
17.63419 -2.3867121 -0.35370559 4294967040
20.990561 -2.3984132 -0.39946312 4294967040
21.078218 -2.3339286 -0.3971405 4294967040
21.979347 -2.2359002 -0.39872304 4294967040
22.061253 -2.3292024 -0.39638859 4294967040
22.240025 -2.3303092 -0.38939053 4294967040
22.419151 -2.3722157 -0.38041258 4294967040
23.121462 -2.3280213 -0.38386157 4294967040
23.274139 -2.287365 -0.38504186 4294967040
23.456192 -2.3400292 -0.39653066 4294967040
23.744051 -2.3160877 -0.39261639 4294967040
23.965801 -2.3819594 -0.3121756 4294967040
24.007103 -2.2588892 -0.33420572 4294967040
26.952694 -2.2594442 -0.27852905 4294967040
27.145725 -2.2650285 -0.27154309 4294967040
27.315239 -2.2992675 -0.27275264 4294967040
27.53956 -2.3139834 -0.27532727 4294967040
27.713669 -2.3331542 -0.27271622 4294967040
27.939331 -2.3286686 -0.2839129 4294967040
28.156422 -2.3107779 -0.28019673 4294967040
28.335461 -2.2871909 -0.2777912 4294967040
28.481754 -2.2208738 -0.2688933 4294967040
28.63269 -2.2286422 -0.20626652 4294967040
-1.6095864 -2.0401008 -0.350299 4294967040
-1.4719157 -2.0371227 -0.28278545 4294967040
-1.2740254 -2.0536213 -0.27714995 4294967040
-1.0601233 -2.0769644 -0.34748465 4294967040
-0.89960581 -2.0871437 -0.32225952 4294967040
-0.67884183 -2.1653755 -0.26179087 4294967040
0.40920871 -2.1622982 -0.32800868 4294967040
1.7658582 -2.0166039 -0.20152617 4294967040
4.7944298 -2.0375152 -0.25399789 4294967040
4.8416014 -2.0587564 -0.27409786 4294967040
5.4502954 -2.1600909 -0.33478689 4294967040
6.341608 -2.1735587 -0.28795198 4294967040
6.7463369 -2.1938515 -0.21615291 4294967040
6.91611 -2.1913619 -0.20385689 4294967040
7.1283827 -2.1910973 -0.37955567 4294967040
7.7857056 -2.0501258 -0.30074155 4294967040
7.8958817 -2.0324109 -0.29817957 4294967040
8.0628395 -2.0147545 -0.27198458 4294967040
8.3515882 -2.1500494 -0.20291743 4294967040
8.4476299 -2.069448 -0.26931134 4294967040
8.6780052 -2.0421915 -0.27518916 4294967040
8.9056044 -2.041543 -0.24203637 4294967040
9.078413 -2.1595173 -0.26343626 4294967040
9.340517 -2.171649 -0.25020817 4294967040
9.7809582 -2.0872159 -0.31645367 4294967040
9.906395 -2.0884771 -0.24009399 4294967040
10.124647 -2.1098056 -0.23180139 4294967040
10.308702 -2.133482 -0.21927905 4294967040
10.508728 -2.1371915 -0.23376516 4294967040
10.716246 -2.1574717 -0.23252054 4294967040
11.74715 -2.0765188 -0.37061828 4294967040
11.898046 -2.0542417 -0.25708386 4294967040
12.003264 -2.0109248 -0.21329618 4294967040
13.167725 -2.1891499 -0.34118208 4294953984
13.292407 -2.1868985 -0.39116484 4294967040
14.582059 -2.1458662 -0.36596197 4294967040
14.759409 -2.0634809 -0.32422692 4294967040
14.95936 -2.09407 -0.34704098 4294967040
15.086437 -2.0540433 -0.33070293 4294967040
18.926289 -2.1333594 -0.21558884 4294967040
19.033861 -2.1472185 -0.24658509 4294967040
22.038471 -2.162189 -0.39773732 4294967040
22.265341 -2.1381524 -0.38638249 4294967040
22.829611 -2.0483217 -0.3840968 4294967040
23.311174 -2.1191444 -0.37906709 4294967040
23.477692 -2.0684304 -0.38187808 4294967040
23.730387 -2.1310673 -0.39401758 4294967040
23.974659 -2.161181 -0.319612 4294967040
24.066498 -2.0874519 -0.32045102 4294967040
24.245434 -2.0500455 -0.30573857 4294967040
24.456623 -2.0251577 -0.29913208 4294967040
24.790171 -2.0000763 -0.35428765 4294967040
24.823898 -2.0028186 -0.34597927 4294967040
25.090744 -2.0321519 -0.31137124 4294967040
25.323647 -2.0455015 -0.33349597 4294967040
25.421724 -2.0499606 -0.32847595 4294967040
25.745682 -2.0129893 -0.33075777 4294967040
25.835157 -2.0226464 -0.36524391 4294967040
26.058395 -2.0259879 -0.33575967 4294967040
26.46726 -2.0426226 -0.26411197 4294967040
27.123013 -2.1518316 -0.26753277 4294967040
27.258045 -2.1875186 -0.26710147 4294967040
27.479864 -2.1872139 -0.25870886 4294967040
27.693939 -2.1772666 -0.2623007 4294967040
27.96344 -2.1640205 -0.27203119 4294967040
28.148975 -2.1611307 -0.25362611 4294967040
28.360678 -2.1803188 -0.27060351 4294967040
28.531979 -2.1695499 -0.27528757 4294967040
28.664209 -2.1012955 -0.27411103 4294967040
28.809204 -2.0940938 -0.21183282 4294967040
-1.0466218 -1.9059192 -0.39721715 4294967040
1.7711565 -1.9801648 -0.2395913 4294967040
4.779758 -1.9116054 -0.31820554 4294967040
4.8548336 -1.8556387 -0.27624381 4294967040
5.3624215 -1.8021722 -0.32821935 4294967040
5.5729041 -1.8033495 -0.24183683 4294967040
5.7798309 -1.8093455 -0.39287597 4294967040
7.4619579 -1.9339298 -0.38029087 4294967040
7.6944408 -1.9013598 -0.38338143 4294967040
7.8766146 -1.9511212 -0.32865763 4294967040
8.1106691 -1.9621232 -0.26800209 4294967040
8.3860569 -1.8821733 -0.30829468 4294967040
8.5415392 -1.9556974 -0.28592667 4294967040
8.7394123 -1.975724 -0.36997208 4294967040
8.900754 -1.9741917 -0.21278128 4294967040
9.967701 -1.8644824 -0.22040647 4294967040
10.024665 -1.8872842 -0.23634037 4294967040
10.264444 -1.9030685 -0.22312677 4294967040
11.738085 -1.975014 -0.37656081 4294967040
11.960461 -1.9927773 -0.30164927 4294967040
12.029284 -1.9955726 -0.23796728 4294967040
14.87259 -1.9890577 -0.37499368 4294967040
15.896645 -1.8178037 -0.28001988 4294967040
18.752659 -1.9344333 -0.26018181 4294967040
20.961687 -1.8466055 -0.38247931 4294967040
21.146143 -1.9378353 -0.35993925 4294967040
21.275576 -1.9162884 -0.38172898 4294967040
21.428104 -1.8315885 -0.31323326 4294967040
21.97312 -1.876763 -0.3966383 4294967040
22.022755 -1.9496205 -0.39580911 4294967040
22.210781 -1.9960905 -0.38387439 4294967040
22.718102 -1.914425 -0.38713583 4294967040
22.841236 -1.9460046 -0.38288087 4294967040
23.040531 -1.8969603 -0.37105846 4294967040
23.534937 -1.8996253 -0.38170466 4294967040
23.753761 -1.9160548 -0.39445597 4294967040
23.935486 -1.9136324 -0.38778776 4294967040
24.142513 -1.941123 -0.38485652 4294967040
24.355057 -1.8994787 -0.38407269 4294967040
24.480238 -1.9629774 -0.29283273 4294967040
24.755169 -1.9866408 -0.35024494 4294967040
24.917219 -1.9409463 -0.3690685 4294967040
25.094324 -1.9201983 -0.35847679 4294967040
25.316746 -1.897655 -0.34742951 4294967040
25.489969 -1.9284331 -0.34313217 4294967040
25.742489 -1.8914459 -0.33044565 4294967040
25.838562 -1.8546335 -0.36307466 4294967040
26.087593 -1.8351531 -0.32667086 4294967040
26.212347 -1.8153425 -0.35651138 4294967040
27.686594 -1.8143083 -0.26541123 4294967040
27.931416 -1.8782165 -0.26355815 4294967040
28.127773 -1.9315782 -0.25887716 4294967040
28.297913 -1.941323 -0.2567569 4294967040
28.536125 -1.9062798 -0.26988804 4294967040
28.731701 -1.9844002 -0.25582859 4294967040
28.810547 -1.8561877 -0.22768342 4294967040
-1.1480124 -1.7944371 -0.36121643 4294967040
3.3612506 -1.6460112 -0.25110039 4294967040
3.406497 -1.6587664 -0.25910151 4294967040
3.954977 -1.7113245 -0.22487117 4294967040
4.0290017 -1.6959301 -0.23871312 4294967040
4.2547565 -1.6594082 -0.24163949 4294967040
4.5689983 -1.7146854 -0.29958165 4294967040
4.7009373 -1.7430003 -0.36803705 4294967040
4.9608884 -1.7226993 -0.30205163 4294967040
5.1151509 -1.7453667 -0.2556437 4294967040
5.3109932 -1.7609364 -0.29964149 4294967040
5.4311752 -1.7464528 -0.35738355 4294967040
5.9080062 -1.6903442 -0.35714841 4294967040
6.0775261 -1.6356986 -0.33012569 4294967040
9.9718504 -1.7133307 -0.20787241 4294967040
10.047306 -1.6816516 -0.22159028 4294967040
10.262251 -1.6423948 -0.26622361 4294967040
11.378466 -1.7783289 -0.39508897 4294967040
11.45483 -1.6572728 -0.39907849 4294967040
11.624008 -1.7342595 -0.39802238 4294967040
14.589171 -1.6437993 -0.36988217 4294967040
14.707516 -1.7114587 -0.35308689 4294967040
14.874049 -1.7018028 -0.3523964 4294967040
15.861361 -1.7886908 -0.28993762 4294967040
20.75695 -1.7051337 -0.36910737 4294967040
20.826132 -1.7171656 -0.38661537 4294967040
21.117296 -1.7052292 -0.25452831 4294967040
21.325912 -1.7380252 -0.23697066 4294967040
21.430641 -1.7302592 -0.31823248 4294967040
21.943375 -1.7631403 -0.39762628 4294967040
22.039158 -1.7207221 -0.39259136 4294967040
22.563162 -1.6285974 -0.39211768 4294967040
22.626598 -1.7295985 -0.38974997 4294967040
22.87446 -1.6993887 -0.37644258 4294967040
23.038647 -1.7336591 -0.36608791 4294967040
23.295271 -1.6979146 -0.39671886 4294967040
23.440666 -1.6556706 -0.38553616 4294967040
23.704277 -1.6618266 -0.37423295 4294967040
23.933062 -1.7377056 -0.38461593 4294967040
24.139698 -1.6949731 -0.38808298 4294967040
24.306469 -1.6962681 -0.38797265 4294967040
24.532881 -1.7351959 -0.33164513 4294967040
24.643936 -1.6823192 -0.37999919 4294967040
24.883766 -1.7613549 -0.36792618 4294967040
25.075853 -1.6940804 -0.24792159 4294967040
25.224695 -1.7178811 -0.22324878 4294967040
25.445866 -1.7102118 -0.31026974 4294967040
25.721611 -1.7462857 -0.344733 4294967040
25.839151 -1.7396616 -0.36551371 4294967040
26.10622 -1.7505839 -0.32535732 4294967040
27.755424 -1.7386202 -0.2651526 4294967040
27.929214 -1.6802669 -0.2594291 4294967040
28.032228 -1.6761639 -0.26195899 4294967040
28.360285 -1.7486502 -0.27845168 4294967040
28.509094 -1.7714238 -0.28022364 4294967040
28.789143 -1.6773725 -0.21561882 4294967040
28.807329 -1.63257 -0.20782423 4294967040
3.1283607 -1.5674062 -0.23972403 4294967040
4.7389083 -1.4107437 -0.23771235 4294967040
4.9418888 -1.4238002 -0.25310147 4294967040
5.1607924 -1.4571183 -0.24902314 4294967040
5.3280678 -1.4810911 -0.23576063 4294967040
5.5519304 -1.497016 -0.27440432 4294967040
5.6679831 -1.5244232 -0.27894178 4294967040
5.9407225 -1.5926855 -0.3542245 4294967040
6.1255608 -1.4175729 -0.38297617 4294967040
6.2263489 -1.4104252 -0.3789221 4294967040
9.9537191 -1.5966241 -0.26070309 4294967040
10.119354 -1.5919085 -0.2722201 4294967040
10.21068 -1.5745119 -0.27402443 4294967040
12.098137 -1.4264073 -0.31011182 4294959872
14.518849 -1.5821244 -0.21523897 4294967040
20.99869 -1.5686616 -0.22772759 4294967040
21.130976 -1.536693 -0.24935353 4294967040
21.374109 -1.5381203 -0.31440389 4294967040
21.460194 -1.4582552 -0.31827772 4294967040
21.86875 -1.493986 -0.39811659 4294967040
22.007126 -1.5394108 -0.39024368 4294967040
22.493483 -1.4673648 -0.39388967 4294967040
22.645424 -1.5003641 -0.38673669 4294967040
22.829908 -1.5404375 -0.37745756 4294967040
23.350672 -1.492877 -0.38532284 4294967040
23.441334 -1.5425274 -0.38453668 4294967040
23.659803 -1.4811592 -0.37298152 4294967040
23.956491 -1.5073646 -0.38560364 4294967040
24.110416 -1.520757 -0.38213614 4294967040
24.334253 -1.5395319 -0.38249367 4294967040
24.503754 -1.5310659 -0.31351426 4294967040
24.719822 -1.4915802 -0.31055111 4294967040
24.887562 -1.5195849 -0.32666624 4294967040
25.116928 -1.4313729 -0.2496715 4294967040
25.265102 -1.5509577 -0.2602694 4294967040
25.448822 -1.5502627 -0.33187702 4294967040
25.738312 -1.5247614 -0.21263771 4294967040
25.825367 -1.5729243 -0.21347734 4294967040
27.331501 -1.4278282 -0.27198964 4294967040
27.557781 -1.5314587 -0.26966324 4294967040
27.732416 -1.5427783 -0.27030867 4294967040
27.919518 -1.5179713 -0.2652818 4294967040
28.091795 -1.4531714 -0.26230341 4294967040
28.388756 -1.593542 -0.29647499 4294967040
28.555756 -1.5598609 -0.25503457 4294967040
28.751411 -1.525635 -0.25327685 4294967040
28.809921 -1.5741169 -0.20769772 4294967040
4.7558727 -1.3603305 -0.2458529 4294967040
4.8317227 -1.3732867 -0.27425969 4294967040
5.267065 -1.2221336 -0.22612984 4294967040
5.9438562 -1.3638353 -0.37585044 4294967040
6.1400433 -1.3708779 -0.39282498 4294967040
6.2367435 -1.3905063 -0.37795791 4294967040
12.139544 -1.3538277 -0.38210022 4294955008
12.264769 -1.3800249 -0.3014442 4294963456
21.153269 -1.3539054 -0.23275752 4294967040
21.277699 -1.3353301 -0.27713501 4294967040
21.449591 -1.3120748 -0.29783091 4294967040
21.757446 -1.3216645 -0.34254998 4294967040
21.858198 -1.3005967 -0.39812988 4294967040
22.377811 -1.223832 -0.39757925 4294967040
22.429478 -1.3232826 -0.39625078 4294967040
22.638485 -1.2979834 -0.38431984 4294967040
22.846125 -1.319651 -0.3726244 4294967040
23.115589 -1.3051813 -0.39714891 4294967040
23.256397 -1.2850358 -0.38784111 4294967040
23.44836 -1.3111451 -0.37987694 4294967040
23.631668 -1.3641636 -0.37274456 4294967040
23.96447 -1.3254261 -0.37833649 4294967040
24.137024 -1.3167962 -0.37826174 4294967040
24.339199 -1.3009706 -0.38321936 4294967040
24.524849 -1.2320269 -0.32718623 4294967040
24.626001 -1.2971692 -0.30098081 4294967040
24.874584 -1.3712416 -0.24289605 4294967040
25.269754 -1.3255659 -0.25955054 4294967040
27.132923 -1.259604 -0.29717794 4294967040
27.334278 -1.3062601 -0.27286476 4294967040
27.551853 -1.2998477 -0.27077031 4294967040
27.740009 -1.3338771 -0.26965237 4294967040
27.913651 -1.2891508 -0.26141453 4294967040
28.122305 -1.2541219 -0.26483694 4294967040
28.33379 -1.264761 -0.2840932 4294967040
28.749138 -1.3036003 -0.24334848 4294967040
28.864735 -1.2701895 -0.2123376 4294967040
5.1815634 -1.0555465 -0.20933017 4294967040
5.2882314 -1.0442407 -0.2296735 4294967040
5.4458427 -1.0357188 -0.31798986 4294967040
5.8589077 -1.024616 -0.34815973 4294967040
6.0805497 -1.0846291 -0.3773632 4294967040
9.9937792 -1.040004 -0.2575222 4294967040
10.014727 -1.0143371 -0.28096545 4294967040
14.739504 -1.0453922 -0.33932301 4294967040
14.879841 -1.0585618 -0.33105493 4294967040
15.023454 -1.134552 -0.38333866 4294967040
20.747461 -1.0010871 -0.39692509 4294967040
21.152817 -1.1834292 -0.35984343 4294967040
21.296539 -1.1825746 -0.33442128 4294967040
21.404242 -1.1837834 -0.35525313 4294967040
21.764835 -1.0840504 -0.39917284 4294967040
21.825052 -1.1547053 -0.39853135 4294967040
22.33205 -1.0560163 -0.39879936 4294967040
22.479282 -1.1158133 -0.39151615 4294967040
22.622892 -1.1207738 -0.38448781 4294967040
22.843664 -1.1096661 -0.37363508 4294967040
23.145536 -1.0995872 -0.39254251 4294967040
23.250282 -1.1384113 -0.38970396 4294967040
23.445057 -1.1087785 -0.37895355 4294967040
23.633984 -1.1704895 -0.36920369 4294967040
23.884918 -1.1529136 -0.36433178 4294967040
24.115023 -1.0886816 -0.38010833 4294967040
24.335173 -1.1157583 -0.38603219 4294967040
24.53697 -1.0958313 -0.31522682 4294967040
24.650417 -1.0671024 -0.26678827 4294967040
24.911293 -1.0110035 -0.22329757 4294967040
25.065968 -1.004324 -0.30854863 4294967040
25.228632 -1.0174308 -0.2940478 4294967040
26.158096 -1.0331644 -0.32710487 4294967040
26.316494 -1.0525974 -0.29578993 4294967040
26.487556 -1.0561615 -0.32182521 4294967040
26.773167 -1.0643046 -0.29369682 4294967040
26.961103 -1.0971755 -0.30472031 4294967040
27.122833 -1.0859115 -0.29874191 4294967040
27.327881 -1.1280169 -0.28114557 4294967040
27.485746 -1.1077118 -0.26806304 4294967040
27.714041 -1.0772005 -0.26693082 4294967040
27.920416 -1.0693069 -0.26246166 4294967040
28.092812 -1.1363109 -0.26520038 4294967040
28.336813 -1.0248673 -0.28209183 4294967040
28.566853 -1.12374 -0.29763731 4294967040
28.768822 -1.1301156 -0.25524306 4294967040
28.881298 -1.1271132 -0.2240821 4294967040
5.19701 -0.87506509 -0.24221271 4294967040
5.3165264 -0.92132419 -0.21719754 4294967040
5.4446721 -0.89799356 -0.30154863 4294967040
5.6378994 -0.95381618 -0.33657873 4294967040
5.9240227 -0.985026 -0.36754376 4294967040
6.1520796 -0.99235278 -0.22936982 4294967040
6.3585358 -0.94527054 -0.23499307 4294967040
6.506865 -0.91168094 -0.22673663 4294967040
6.6997299 -0.89159483 -0.25537211 4294967040
6.8457994 -0.84195429 -0.21917872 4294967040
9.9973269 -0.94121116 -0.28153563 4294967040
10.024651 -0.88328946 -0.3680189 4294967040
14.71121 -0.98763502 -0.28089151 4294967040
14.862902 -0.98989648 -0.26463041 4294967040
15.550125 -0.80637586 -0.29269084 4294967040
19.758173 -0.83522475 -0.35661098 4294967040
20.715054 -0.87023759 -0.39928398 4294967040
21.748991 -0.89018893 -0.39822084 4294967040
21.826765 -0.92391366 -0.39603508 4294967040
22.295677 -0.85936725 -0.39844179 4294967040
22.459213 -0.92552197 -0.38985878 4294967040
22.639572 -0.89503229 -0.38076013 4294967040
22.818882 -0.91140163 -0.37130404 4294967040
23.06395 -0.86557001 -0.39585626 4294967040
23.252159 -0.92817229 -0.38708973 4294967040
23.435551 -0.94179529 -0.37822974 4294967040
23.636856 -0.94645083 -0.37660974 4294967040
23.990734 -0.92132044 -0.36918551 4294967040
24.106068 -0.91473567 -0.37805492 4294967040
24.291342 -0.88804173 -0.37162909 4294967040
24.479898 -0.86314756 -0.3586061 4294967040
24.652969 -0.92047209 -0.32417333 4294967040
24.847397 -0.87091917 -0.35045415 4294967040
25.094425 -0.9222225 -0.33779788 4294967040
25.334831 -0.94016564 -0.3135621 4294967040
25.467539 -0.88760507 -0.33083361 4294967040
25.707375 -0.89561528 -0.33486423 4294967040
25.985826 -0.87371105 -0.33140245 4294967040
26.145744 -0.90933943 -0.33117092 4294967040
26.33659 -0.9117496 -0.32572401 4294967040
26.524487 -0.94091332 -0.31925678 4294967040
26.743181 -0.93164968 -0.32171652 4294967040
26.913206 -0.93517798 -0.31316009 4294967040
27.084282 -0.91074961 -0.29511532 4294967040
27.348114 -0.9177888 -0.28518659 4294967040
27.508087 -0.921507 -0.26289794 4294967040
27.749556 -0.90711522 -0.26489222 4294967040
27.909088 -0.82857257 -0.25769773 4294967040
28.002365 -0.9998405 -0.26206973 4294967040
28.307156 -0.84992099 -0.26701525 4294967040
28.756496 -0.92829537 -0.26789248 4294967040
28.902733 -0.92877543 -0.21454492 4294967040
5.3906183 -0.793329 -0.25351807 4294967040
5.4195809 -0.7853992 -0.2259796 4294967040
9.9860649 -0.70567185 -0.25860313 4294967040
10.024767 -0.6596607 -0.35826254 4294967040
11.264822 -0.60560662 -0.2119555 4294967040
15.294108 -0.67131913 -0.30141771 4294967040
15.584064 -0.68343329 -0.29820287 4294967040
18.331606 -0.70272642 -0.24784289 4294967040
18.526598 -0.74900484 -0.30893159 4294967040
19.507273 -0.71245772 -0.38064259 4294967040
19.723227 -0.75607336 -0.35915306 4294967040
20.699686 -0.7103886 -0.39949375 4294967040
21.697754 -0.67630047 -0.39808273 4294967040
21.834721 -0.68488991 -0.39567518 4294967040
22.236134 -0.66047543 -0.39928144 4294967040
22.430767 -0.73211944 -0.38855278 4294967040
22.625496 -0.7300781 -0.37939399 4294967040
22.973932 -0.64400172 -0.39803815 4294967040
23.033503 -0.71279293 -0.39677972 4294967040
23.236027 -0.72916484 -0.38609594 4294967040
23.431511 -0.70339411 -0.37718016 4294967040
23.72105 -0.61645609 -0.39839154 4294967040
23.957924 -0.74479198 -0.36863786 4294967040
24.140181 -0.68874037 -0.3685056 4294967040
24.274872 -0.73335272 -0.36928806 4294967040
24.444244 -0.72788113 -0.3570852 4294967040
24.753313 -0.71450025 -0.37020141 4294967040
24.950577 -0.68704003 -0.36106554 4294967040
25.157379 -0.71015757 -0.36853966 4294967040
25.324259 -0.62739134 -0.3540135 4294967040
25.525169 -0.69905829 -0.34677401 4294967040
25.740829 -0.73159385 -0.34121203 4294967040
25.926821 -0.77319217 -0.33076024 4294967040
26.153263 -0.77683401 -0.33131239 4294967040
26.35656 -0.76762044 -0.32696795 4294967040
26.572237 -0.77543426 -0.31939906 4294967040
26.700119 -0.73772609 -0.31919658 4294967040
26.941349 -0.74884534 -0.31306863 4294967040
27.133238 -0.71202356 -0.29591909 4294967040
27.297457 -0.64939255 -0.2911813 4294967040
27.548687 -0.72387886 -0.26090533 4294967040
27.724272 -0.71150243 -0.26699138 4294967040
27.907248 -0.64757037 -0.25581145 4294967040
28.134106 -0.70196795 -0.25617313 4294967040
28.26408 -0.70278651 -0.26975012 4294967040
28.457352 -0.6401962 -0.2864275 4294967040
28.730846 -0.71118844 -0.28085446 4294967040
28.926456 -0.64362681 -0.21813031 4294967040
9.9801998 -0.47237194 -0.22241943 4294967040
10.03333 -0.46480605 -0.30150527 4294967040
11.268244 -0.49004906 -0.21106493 4294967040
15.321003 -0.50259155 -0.32409796 4294967040
15.59444 -0.58483458 -0.29591858 4294967040
15.604675 -0.49858153 -0.29619855 4294967040
19.117691 -0.50951225 -0.2617408 4294967040
19.670626 -0.5327062 -0.36214304 4294967040
20.697498 -0.47130024 -0.39778677 4294967040
21.658459 -0.46781141 -0.39891431 4294967040
21.818043 -0.54339701 -0.39422229 4294967040
22.189045 -0.50963616 -0.3997947 4294967040
22.296413 -0.48856825 -0.39436179 4294967040
22.436855 -0.48907644 -0.38629311 4294967040
22.632801 -0.56572145 -0.37757906 4294967040
22.946678 -0.47734642 -0.39782012 4294967040
23.070103 -0.52172589 -0.39247459 4294967040
23.228075 -0.50708979 -0.38581976 4294967040
23.426273 -0.53080857 -0.37577412 4294967040
23.741741 -0.41219491 -0.39669162 4294967040
23.943409 -0.5423668 -0.36580837 4294967040
24.120918 -0.52966928 -0.36963865 4294967040
24.368359 -0.54198951 -0.35754037 4294967040
24.506615 -0.48780018 -0.37212437 4294967040
24.723715 -0.46527308 -0.36371401 4294967040
24.917454 -0.48114836 -0.34737074 4294967040
25.14052 -0.48815534 -0.37124673 4294967040
25.34251 -0.42088127 -0.35379905 4294967040
25.521315 -0.42636853 -0.34621203 4294967040
25.75178 -0.54346907 -0.34475553 4294967040
25.925289 -0.5618366 -0.3398276 4294967040
26.108614 -0.58066398 -0.33632785 4294967040
26.334368 -0.57385063 -0.3289575 4294967040
26.542168 -0.49459156 -0.3264192 4294967040
26.703667 -0.55062699 -0.31796193 4294967040
26.949745 -0.53376448 -0.31658143 4294967040
27.139574 -0.46706527 -0.30478913 4294967040
27.321484 -0.46581566 -0.28939945 4294967040
27.543144 -0.51536381 -0.26395935 4294967040
27.732395 -0.53552079 -0.26101065 4294967040
27.947027 -0.46367434 -0.2567535 4294967040
28.127558 -0.47853324 -0.25334236 4294967040
28.366249 -0.48455539 -0.26454931 4294967040
28.422386 -0.58441317 -0.27796063 4294967040
28.761375 -0.50563657 -0.27591148 4294967040
28.941273 -0.45288169 -0.21584128 4294967040
9.9850101 -0.38106617 -0.22385579 4294967040
10.096449 -0.26360148 -0.21486023 4294967040
10.340446 -0.2630232 -0.20826541 4294967040
10.517828 -0.26066518 -0.23231246 4294967040
11.032644 -0.29209936 -0.20696008 4294967040
11.277872 -0.34130251 -0.21022166 4294967040
15.361227 -0.30868769 -0.30879349 4294967040
15.531348 -0.31026387 -0.3005839 4294967040
15.613045 -0.35941964 -0.29533708 4294967040
20.64135 -0.33083931 -0.39957264 4294967040
21.696182 -0.34272963 -0.39859819 4294967040
21.80913 -0.33259276 -0.39416659 4294967040
22.186796 -0.26342446 -0.3995854 4294967040
22.264019 -0.2907826 -0.39399511 4294967040
22.437363 -0.29193884 -0.38504559 4294967040
22.636557 -0.31955433 -0.37603259 4294967040
22.916344 -0.26465395 -0.39725393 4294967040
23.068653 -0.34067094 -0.39029583 4294967040
23.263203 -0.33375764 -0.38125175 4294967040
23.460529 -0.3191303 -0.37328607 4294967040
23.718403 -0.27241108 -0.38684124 4294967040
23.965494 -0.26585662 -0.36916947 4294967040
24.099495 -0.36812052 -0.36978337 4294967040
24.275812 -0.29320478 -0.35869059 4294967040
24.533279 -0.28100657 -0.36849001 4294967040
24.752365 -0.26421008 -0.35929334 4294967040
24.92771 -0.28046185 -0.34640914 4294967040
25.073578 -0.25170684 -0.36241549 4294967040
25.326843 -0.25245202 -0.35912046 4294967040
25.540066 -0.23959935 -0.34855902 4294967040
25.746716 -0.30499649 -0.34666184 4294967040
25.950848 -0.35637772 -0.3402161 4294967040
26.134537 -0.35726434 -0.33473527 4294967040
26.341904 -0.30309311 -0.33173281 4294967040
26.475925 -0.36171189 -0.32343039 4294967040
26.67086 -0.34363961 -0.3182795 4294967040
26.946299 -0.32126108 -0.31830403 4294967040
27.139774 -0.32080159 -0.31444079 4294967040
27.369753 -0.28830153 -0.28734252 4294967040
27.523964 -0.23139495 -0.27500743 4294967040
27.700752 -0.29183996 -0.26263055 4294967040
27.888519 -0.25364533 -0.26932153 4294967040
28.080727 -0.34127322 -0.25236544 4294967040
28.49172 -0.30332902 -0.27595979 4294967040
28.742456 -0.32169539 -0.28623274 4294967040
28.96191 -0.26711792 -0.2151874 4294967040
20.64661 -0.16449201 -0.39924613 4294967040
21.751076 -0.13180946 -0.39686608 4294967040
21.903156 -0.058532767 -0.39694476 4294967040
22.192276 -0.087120429 -0.39716002 4294967040
22.280571 -0.12448448 -0.39105457 4294967040
22.425043 -0.14931341 -0.38398927 4294967040
22.642244 -0.10117428 -0.376775 4294967040
22.887642 -0.067975469 -0.39726263 4294967040
23.031303 -0.14201251 -0.38978791 4294967040
23.227726 -0.15447581 -0.3802985 4294967040
23.429718 -0.13711084 -0.37325287 4294967040
23.704189 -0.052597888 -0.39108568 4294967040
24.163116 -0.078319214 -0.36229157 4294967040
24.226072 -0.093566909 -0.35895625 4294967040
24.513901 -0.078428656 -0.36763227 4294967040
24.758202 -0.069424033 -0.35859513 4294967040
24.926435 -0.080946825 -0.34567577 4294967040
25.072819 -0.044061437 -0.36186153 4294967040
25.360554 -0.046973392 -0.35400051 4294967040
25.54031 -0.019247947 -0.34806854 4294967040
25.721668 -0.15473917 -0.33776903 4294967040
25.9231 -0.17462404 -0.34441778 4294967040
26.106096 -0.12869942 -0.33321705 4294967040
26.332933 -0.14540435 -0.3317498 4294967040
26.4862 -0.11574435 -0.32309404 4294967040
26.702579 -0.14201412 -0.31877303 4294967040
26.938025 -0.13387066 -0.31766984 4294967040
27.146353 -0.15674089 -0.31329197 4294967040
27.30254 -0.070743628 -0.29292652 4294967040
27.536015 -0.087921232 -0.2695623 4294967040
27.714987 -0.12090822 -0.26477391 4294967040
27.875151 -0.10026687 -0.26986271 4294967040
28.031029 -0.12572414 -0.25743532 4294967040
28.76351 -0.10395344 -0.27976453 4294967040
28.978577 -0.081318982 -0.21289407 4294967040
29.021791 -0.08160013 -0.20701155 4294967040
30.356037 -0.011185791 -0.21481881 4294967040
30.477528 -0.01850185 -0.20053418 4294967040
30.675011 -0.030337926 -0.22188744 4294967040
31.329155 -0.043178633 -0.23532072 4294967040
31.415699 -0.023846459 -0.23536833 4294967040
32.65329 -0.064165138 -0.2025049 4294967040
21.747601 0.085215628 -0.39738995 4294967040
21.882299 0.10729945 -0.39931688 4294967040
22.169558 0.075504534 -0.39807779 4294967040
22.255825 0.093118526 -0.39131638 4294967040
22.421835 0.079108581 -0.38332736 4294967040
22.62978 0.067632683 -0.3765763 4294967040
22.86727 0.12931676 -0.39708722 4294967040
23.025642 0.11365854 -0.38735336 4294967040
23.236582 0.091067404 -0.37856063 4294967040
23.430035 0.071798444 -0.37107974 4294967040
23.696678 0.1673604 -0.39013225 4294967040
23.990093 0.040304624 -0.39464834 4294967040
24.142691 0.078432165 -0.36494115 4294967040
24.259718 0.10072671 -0.35695535 4294967040
24.521263 0.11684562 -0.36611214 4294967040
24.745552 0.13521202 -0.36201954 4294967040
24.91077 0.1187222 -0.34460163 4294967040
25.073959 0.15729591 -0.36158776 4294967040
25.351658 0.18575233 -0.35425848 4294967040
25.533218 0.18476036 -0.34526762 4294967040
25.688999 0.046692286 -0.3410691 4294967040
25.925997 0.014809793 -0.34401029 4294967040
26.09935 0.030801857 -0.33463013 4294967040
26.345806 0.052193888 -0.3305245 4294967040
26.499105 0.048282672 -0.32176247 4294967040
26.706459 0.059283063 -0.31850988 4294967040
26.883404 0.061062053 -0.31793079 4294967040
27.142086 0.03999202 -0.31206447 4294967040
27.365595 0.10512709 -0.28493086 4294967040
27.531141 0.095285729 -0.26995319 4294967040
27.71973 0.075153664 -0.26527557 4294967040
27.925634 0.095073424 -0.26415324 4294967040
28.13162 0.063718326 -0.25423461 4294967040
28.340508 0.18077937 -0.25332612 4294967040
28.519423 0.078876019 -0.27382332 4294967040
28.734335 0.019334119 -0.27918354 4294967040
28.961143 0.05256369 -0.2385854 4294967040
29.006998 0.13399565 -0.21941167 4294967040
29.979433 0.16291003 -0.20540507 4294967040
30.039173 0.1463289 -0.25653881 4294967040
30.223387 0.1347799 -0.24563655 4294967040
30.419256 0.08153794 -0.20552225 4294967040
30.651054 0.088587448 -0.21111372 4294967040
31.18351 0.12108264 -0.2300192 4294967040
31.231369 0.063400961 -0.22963643 4294967040
31.432695 0.13696605 -0.23662406 4294967040
32.683098 0.091999486 -0.20308372 4294967040
-12.774922 0.207766 -0.24006099 4278321152
21.726124 0.28881726 -0.39980847 4294967040
21.968937 0.35283414 -0.39841965 4294967040
22.168297 0.35508808 -0.39746189 4294967040
22.235533 0.28087455 -0.39208943 4294967040
22.437599 0.30216411 -0.38400775 4294967040
22.654074 0.31583315 -0.3775444 4294967040
22.857014 0.33332452 -0.39719835 4294967040
23.020964 0.29279459 -0.38683268 4294967040
23.22443 0.28312406 -0.37978896 4294967040
23.437813 0.31598398 -0.37029564 4294967040
23.654961 0.36470175 -0.37617421 4294967040
23.965349 0.33132339 -0.38232815 4294967040
24.103283 0.28362864 -0.36377144 4294967040
24.295746 0.29798645 -0.35801458 4294967040
24.436462 0.28204373 -0.3553372 4294967040
24.722435 0.32870275 -0.36094141 4294967040
24.885357 0.32827544 -0.34876043 4294967040
25.148258 0.35853955 -0.36142433 4294967040
25.349239 0.37447095 -0.35189724 4294967040
25.533104 0.38078612 -0.34890059 4294967040
25.684431 0.2517477 -0.34414965 4294967040
25.925417 0.21989352 -0.34402204 4294967040
26.100267 0.2827557 -0.33309618 4294967040
26.332397 0.23795184 -0.33038726 4294967040
26.473114 0.30026671 -0.32010129 4294967040
26.749538 0.30113733 -0.31532532 4294967040
26.945724 0.27335581 -0.31559148 4294967040
27.169481 0.31481248 -0.30184868 4294967040
27.300756 0.2955294 -0.29017076 4294967040
27.554073 0.31328064 -0.26284415 4294967040
27.756258 0.31968656 -0.26118001 4294967040
27.932247 0.35786599 -0.26090923 4294967040
28.105072 0.256217 -0.25465316 4294967040
28.306652 0.29920411 -0.24894942 4294967040
28.520048 0.29118198 -0.2428997 4294967040
28.680111 0.32513684 -0.23872095 4294967040
28.92683 0.34356585 -0.23476209 4294967040
29.121601 0.33771569 -0.2245878 4294967040
29.33699 0.33029824 -0.22386217 4294967040
29.492931 0.30997264 -0.21576059 4294967040
29.726257 0.28317997 -0.21634865 4294967040
29.94561 0.28222084 -0.20523477 4294967040
30.02194 0.28800476 -0.2569499 4294967040
30.215189 0.33338854 -0.26000264 4294967040
30.436775 0.28045672 -0.21085142 4294967040
30.680977 0.2950004 -0.2105443 4294967040
31.185024 0.29308847 -0.22958598 4294967040
31.231949 0.28646016 -0.22931695 4294967040
31.438293 0.29662395 -0.23932296 4294967040
32.715214 0.28513205 -0.20428933 4294967040
32.814362 0.35768467 -0.20720664 4294967040
21.97287 0.40261731 -0.39797512 4294967040
22.165415 0.51912057 -0.39610487 4294967040
22.239496 0.50412059 -0.39149162 4294967040
22.414816 0.48900571 -0.3861407 4294967040
22.640507 0.46340787 -0.37865865 4294967040
22.856819 0.54162157 -0.39744392 4294967040
23.038254 0.46546006 -0.38696036 4294967040
23.234089 0.49801072 -0.37922859 4294967040
23.453163 0.48379332 -0.37048978 4294967040
23.663013 0.4890452 -0.37600321 4294967040
23.926922 0.5355323 -0.38041723 4294967040
24.090113 0.49757084 -0.37214231 4294967040
24.255028 0.48225561 -0.35845733 4294967040
24.473665 0.5229404 -0.35391676 4294967040
24.691269 0.5087375 -0.35917896 4294967040
24.927183 0.52500135 -0.3566578 4294967040
25.146255 0.50671464 -0.35928521 4294967040
25.343 0.51511508 -0.35268515 4294967040
25.535931 0.57242459 -0.34757227 4294967040
25.768673 0.53417027 -0.34641671 4294967040
25.957788 0.48051262 -0.33877861 4294967040
26.137865 0.5000248 -0.33303198 4294967040
26.360132 0.44322556 -0.32415023 4294967040
26.542267 0.45459309 -0.32277417 4294967040
26.757769 0.45897475 -0.3149069 4294967040
26.940685 0.4737559 -0.31258234 4294967040
27.150768 0.51917189 -0.3015492 4294967040
27.350523 0.51187378 -0.28858361 4294967040
27.519436 0.52404702 -0.26507169 4294967040
27.721981 0.51006991 -0.26672834 4294967040
27.92124 0.50033832 -0.26246506 4294967040
28.127125 0.50784701 -0.2544232 4294967040
28.344757 0.50466007 -0.24981993 4294967040
28.499378 0.48727334 -0.24076235 4294967040
28.720329 0.49181589 -0.24059702 4294967040
28.955006 0.50130069 -0.2308272 4294967040
29.122986 0.49720788 -0.22577138 4294967040
29.303762 0.54525054 -0.22522479 4294967040
29.552155 0.48034191 -0.22314604 4294967040
29.727207 0.4792136 -0.21557188 4294967040
29.92683 0.48750967 -0.20749983 4294967040
30.030424 0.53290915 -0.25634551 4294967040
30.216373 0.52155244 -0.25725016 4294967040
30.431845 0.50976378 -0.22144626 4294967040
30.722431 0.49661306 -0.21078826 4294967040
31.19162 0.40201107 -0.22985831 4294967040
31.222107 0.53992116 -0.23058574 4294967040
31.434223 0.52289701 -0.24129304 4294967040
31.610329 0.54703748 -0.21643794 4294967040
32.729332 0.4842658 -0.20406413 4294967040
32.817341 0.50423497 -0.20913601 4294967040
8.1466198 0.77039886 -0.2972132 4294967040
22.147942 0.65717661 -0.39677727 4294967040
22.234182 0.68499058 -0.39206231 4294967040
22.443485 0.68944275 -0.38710383 4294967040
22.670273 0.70472288 -0.38164029 4294967040
22.858728 0.74191403 -0.39831775 4294967040
23.054535 0.66845012 -0.38648635 4294967040
23.231266 0.68562531 -0.37984604 4294967040
23.477043 0.69552708 -0.37193379 4294967040
23.704201 0.70202613 -0.36637998 4294967040
23.937389 0.66844022 -0.35688993 4294967040
24.095795 0.68850935 -0.37584132 4294967040
24.297913 0.70456231 -0.36049759 4294967040
24.47908 0.71768951 -0.35665268 4294967040
24.680857 0.76786411 -0.36259297 4294967040
24.878166 0.78585881 -0.36142921 4294967040
25.051332 0.76946694 -0.37632167 4294967040
25.303539 0.67475832 -0.30004281 4294967040
25.450668 0.74290121 -0.33899662 4294967040
25.730331 0.64851445 -0.34267604 4294967040
25.918312 0.63367915 -0.33685809 4294967040
26.103836 0.63541758 -0.33470154 4294967040
26.329178 0.6157521 -0.32402229 4294967040
26.511215 0.63192809 -0.32237646 4294967040
26.717033 0.63761878 -0.31561637 4294967040
26.907721 0.65970957 -0.31177437 4294967040
27.068348 0.64692318 -0.30766058 4294967040
27.329205 0.76110399 -0.2859531 4294967040
27.49263 0.72531676 -0.26624504 4294967040
27.729288 0.7368167 -0.26655814 4294967040
27.952677 0.66109312 -0.26190287 4294967040
28.166174 0.72530681 -0.25352597 4294967040
28.35523 0.74505866 -0.24808355 4294967040
28.556534 0.68224609 -0.24326238 4294967040
28.739952 0.68908566 -0.23876484 4294967040
28.95219 0.73057055 -0.22923392 4294967040
29.092022 0.67968535 -0.22541006 4294967040
29.321396 0.67563319 -0.2210408 4294967040
29.553568 0.74238849 -0.21865396 4294967040
29.763165 0.69162357 -0.21562217 4294967040
29.957777 0.7280125 -0.23267977 4294967040
30.062244 0.69940853 -0.25704396 4294967040
30.222651 0.72548747 -0.26034093 4294967040
30.416271 0.73498178 -0.22435378 4294967040
30.737787 0.72204572 -0.21178399 4294967040
31.254826 0.67559028 -0.23187129 4294967040
31.453255 0.73403072 -0.24459445 4294967040
31.613449 0.708902 -0.22152676 4294967040
32.694336 0.74091345 -0.20338359 4294967040
32.845913 0.75389856 -0.20911296 4294967040
8.1526718 0.85684097 -0.32812786 4294967040
8.2459908 0.93949711 -0.32471758 4294967040
21.993929 0.96230674 -0.3998704 4294967040
22.181623 0.90030742 -0.39741278 4294967040
22.241314 0.91036433 -0.39246094 4294967040
22.442791 0.85638666 -0.38813478 4294967040
22.66625 0.89624548 -0.38265836 4294967040
22.905903 0.91923642 -0.39603251 4294967040
23.058815 0.91282547 -0.38719791 4294967040
23.240021 0.89835173 -0.38120762 4294967040
23.485876 0.91080439 -0.37423393 4294967040
23.705736 0.90007812 -0.36670396 4294967040
23.882368 0.87300491 -0.35733092 4294967040
24.084747 0.92516834 -0.37198743 4294967040
24.289621 0.84945297 -0.36190659 4294967040
24.47086 0.88240999 -0.35742095 4294967040
24.684807 0.91795385 -0.35149005 4294967040
24.930496 0.95591694 -0.36563143 4294967040
25.145397 0.93334436 -0.35911018 4294967040
25.358236 0.90513688 -0.35009301 4294967040
25.542929 0.96119601 -0.35331833 4294967040
25.739283 0.8599717 -0.34766984 4294967040
25.916348 0.86086082 -0.33485937 4294967040
26.145479 0.86516869 -0.33008063 4294967040
26.302891 0.88029361 -0.323663 4294967040
26.528524 0.88340366 -0.31835413 4294967040
26.711258 0.89711183 -0.31903657 4294967040
26.952274 0.89580798 -0.30973724 4294967040
27.161646 0.91574717 -0.29267228 4294967040
27.337524 0.94092667 -0.27892131 4294967040
27.527676 0.92715132 -0.2662172 4294967040
27.742176 0.89387113 -0.2665329 4294967040
27.94665 0.90135801 -0.2596969 4294967040
28.108049 0.92991805 -0.26154107 4294967040
28.324667 0.91589421 -0.24997966 4294967040
28.512978 0.93566734 -0.24544299 4294967040
28.763121 0.92970073 -0.23370761 4294967040
28.880724 0.88845026 -0.22703496 4294967040
29.155102 0.8976301 -0.22943208 4294967040
29.310225 0.88067263 -0.22034186 4294967040
29.505013 0.93635023 -0.22048119 4294967040
29.734543 0.87118435 -0.2163825 4294967040
29.930771 0.92406857 -0.23446614 4294967040
30.03837 0.89126033 -0.25765184 4294967040
30.212334 0.8732388 -0.26420474 4294967040
30.418894 0.92141318 -0.22569008 4294967040
30.749027 0.90946025 -0.21209456 4294967040
31.352493 0.90599179 -0.23862469 4294967040
31.454403 0.92103332 -0.23943309 4294967040
31.61908 0.92157429 -0.22455239 4294967040
32.829517 0.83802295 -0.20946112 4294967040
39.889313 0.97134131 -0.23095968 4294967040
40.122704 0.94807053 -0.22441712 4294967040
-12.632343 1.0285695 -0.23458531 4278321152
8.1872053 1.0909592 -0.3264856 4294967040
8.3584185 1.1858499 -0.31895977 4294967040
8.4053793 1.1918559 -0.31803638 4294967040
22.103996 1.1016812 -0.39828086 4294967040
22.253345 1.1033756 -0.39231116 4294967040
22.41744 1.1539698 -0.38957751 4294967040
22.632286 1.1059403 -0.38192967 4294967040
22.900167 1.1458099 -0.39758444 4294967040
23.014168 1.1127079 -0.38813159 4294967040
23.235085 1.1280615 -0.38268822 4294967040
23.488918 1.0817196 -0.37425166 4294967040
23.703102 1.108233 -0.36889195 4294967040
23.966072 1.051779 -0.37804389 4294967040
24.11413 1.1517954 -0.3717761 4294967040
24.272852 1.0869465 -0.36433911 4294967040
24.463556 1.0911207 -0.35937849 4294967040
24.743923 1.1280394 -0.36838061 4294967040
24.929268 1.1578002 -0.36137432 4294967040
25.135899 1.1690967 -0.35686481 4294967040
25.31374 1.176615 -0.35204661 4294967040
25.528664 1.191628 -0.35251501 4294967040
25.749798 1.0246499 -0.34097886 4294967040
25.938671 1.0175838 -0.3372381 4294967040
26.153339 1.0253339 -0.3287071 4294967040
26.343311 1.0381052 -0.32754016 4294967040
26.504459 1.0428724 -0.32016397 4294967040
26.721075 1.0554876 -0.31890371 4294967040
26.922844 1.0556419 -0.3106491 4294967040
27.148865 1.1557181 -0.29160964 4294967040
27.346579 1.1142757 -0.26647735 4294967040
27.532095 1.1050425 -0.26862764 4294967040
27.694799 1.1001601 -0.27015844 4294967040
27.926182 1.1354804 -0.26222593 4294967040
28.155487 1.1193643 -0.25685471 4294967040
28.330627 1.0896999 -0.24630645 4294967040
28.537683 1.1124163 -0.24701466 4294967040
28.707081 1.124975 -0.23494236 4294967040
28.923851 1.1216874 -0.23139873 4294967040
29.153326 1.1165216 -0.22904061 4294967040
29.333084 1.0771631 -0.22161721 4294967040
