# .PCD v0.7 - Point Cloud Data file format
VERSION 0.7
FIELDS x y z rgb
SIZE 4 4 4 4
TYPE F F F U
COUNT 1 1 1 1
WIDTH 1092
HEIGHT 1
VIEWPOINT 0 0 0 1 0 0 0
POINTS 1092
DATA ascii
-2.4300809 2.730737 -0.24299961 4294967040
-1.4744484 2.6918228 -0.35297596 4294967040
4.9815168 2.6318078 -0.33612728 4294967040
9.2846451 2.6171117 -0.37374741 4294967040
-2.154592 2.9942589 -0.23508884 4294967040
-1.59396 2.95119 -0.37903818 4294967040
4.9783177 2.8193378 -0.34663251 4294967040
-2.0303624 3.1231003 -0.36644685 4294967040
-1.4488516 3.1963048 -0.39909083 4294967040
4.9980888 3.0531852 -0.30590698 4294967040
5.0010395 3.0728745 -0.32041353 4294967040
6.761795 3.0081112 -0.22974442 4294962688
-2.031961 3.2860126 -0.30480605 4294967040
-1.4727455 3.3148606 -0.38295835 4294967040
-1.3775456 3.3280513 -0.39923739 4294967040
4.9977751 3.2739778 -0.23946039 4294967040
5.0017223 3.225142 -0.267088 4294967040
-2.0348268 3.4080532 -0.29365602 4294967040
-1.9036652 3.5383899 -0.36734664 4294967040
-1.6434631 3.4274707 -0.33921447 4294967040
-1.5618623 3.4001005 -0.34590906 4294967040
4.9926081 3.4963558 -0.28663853 4294967040
5.0048652 3.5213053 -0.28544423 4294967040
-1.8461039 3.7728291 -0.37145042 4294967040
-1.5351011 3.7984867 -0.38154155 4294967040
-1.3504375 3.727551 -0.39758563 4294967040
-1.1881717 3.7750144 -0.39587107 4294967040
4.9935851 3.6355267 -0.26313573 4294967040
5.0084047 3.681047 -0.3351227 4294967040
-1.8157287 3.8192506 -0.32334059 4294967040
-1.7883664 3.8573327 -0.28210688 4294967040
-1.5450236 3.8289406 -0.39781976 4294967040
-1.2590013 3.8784566 -0.39745653 4294967040
-1.151433 3.9072268 -0.39709562 4294967040
5.7588592 3.8493433 -0.2976107 4294965760
5.8250036 3.8649542 -0.33428279 4294967040
-1.6928086 4.0299168 -0.29855925 4294967040
-1.570339 4.1619434 -0.30382663 4294967040
-1.3347554 4.0352192 -0.39281422 4294967040
-1.0761015 4.0581713 -0.39728102 4294967040
-0.97654307 4.1259856 -0.3973912 4294967040
-1.5806437 4.224474 -0.30417889 4294967040
-1.3289518 4.2117577 -0.38109085 4294967040
-0.91982353 4.227531 -0.39617741 4294967040
-1.4680958 4.4306726 -0.34272188 4294967040
-1.3759534 4.5772467 -0.30036631 4294967040
-6.4094191 4.6575041 -0.38915151 4294967040
-6.3088112 4.6841526 -0.23177347 4294967040
-6.1295605 4.7362146 -0.28658551 4294967040
-1.3520262 4.6254492 -0.33031839 4294967040
-6.0655851 4.9753942 -0.28491253 4294967040
-1.200444 4.8984509 -0.22528437 4294967040
-1.1944656 4.9000235 -0.23036718 4294967040
4.7046084 4.8558536 -0.36807755 4294967040
4.9696393 4.966763 -0.23740351 4294967040
-6.0834618 5.0283303 -0.26575562 4294967040
-1.052022 5.0879946 -0.33991888 4294967040
4.9670734 5.1187482 -0.24459912 4294967040
-6.0598855 5.2255778 -0.27336103 4294967040
4.9587035 5.2287116 -0.2393496 4294967040
5.1501589 5.2964859 -0.26264822 4294967040
5.2972403 5.2606921 -0.33069792 4294967040
5.4543114 5.3038077 -0.31771851 4294967040
-6.0350294 5.4646134 -0.36510658 4294967040
-0.80832982 5.5236607 -0.24145012 4294967040
-0.7493968 5.5792546 -0.29401517 4294967040
6.4511352 5.5991273 -0.22742155 4294967040
-6.0430956 5.6634483 -0.36730152 4294967040
-0.70164353 5.618165 -0.30398953 4294967040
-0.54536283 5.7302656 -0.28735825 4294967040
6.3440037 5.6456208 -0.2333439 4294967040
6.4166489 5.6265392 -0.23682463 4294967040
6.7776952 5.759305 -0.33620769 4294967040
6.8277454 5.7925863 -0.35587543 4294967040
6.3652272 5.8713865 -0.39619452 4294967040
6.7852015 5.8624396 -0.28644916 4294967040
6.8216858 5.8825989 -0.27594754 4294967040
6.1582785 6.1902628 -0.27145866 4294967040
6.9936032 6.1659088 -0.24279276 4294967040
7.0654173 6.1606498 -0.32432359 4294967040
7.4927416 6.1929193 -0.37369421 4294967040
-5.9314008 6.2869768 -0.20599842 4294967040
-5.6015458 6.27455 -0.3804113 4294967040
-5.5853868 6.2749462 -0.37603903 4294967040
-0.29839107 6.3185587 -0.28630409 4294967040
-0.14963144 6.3210669 -0.28482091 4294967040
5.3574753 6.377141 -0.29620248 4294967040
5.5182304 6.3868966 -0.33019677 4294967040
5.6630826 6.3536258 -0.25902498 4294967040
5.8357682 6.3556366 -0.33529723 4294967040
8.1767864 6.3958116 -0.22906853 4294967040
8.2551765 6.394371 -0.23073407 4294967040
8.4808006 6.3954363 -0.24474627 4294967040
8.6769466 6.3905735 -0.25573879 4294967040
5.3061957 6.41085 -0.21050566 4294967040
5.4279618 6.5056047 -0.28999597 4294967040
5.6922479 6.418541 -0.31915811 4294967040
5.8121099 6.4145274 -0.31365955 4294967040
7.9175787 6.4726152 -0.32333973 4294967040
8.0947704 6.4424334 -0.30045807 4294967040
8.2389507 6.4045911 -0.39154088 4294967040
8.5062952 6.4795022 -0.31297702 4294957056
8.7089024 6.4776821 -0.31857878 4294958592
8.1152687 -5.0310154 -0.080521673 4294967040
8.3566284 -5.0511913 -0.016725052 4294967040
8.5793381 -5.0183167 -0.014911744 4294967040
8.7195892 -5.0440021 -0.005069348 4294967040
8.9312983 -5.0449295 -0.013870516 4294967040
9.134058 -5.0275469 -0.017860861 4294967040
9.3446732 -5.0346947 -0.0035713301 4294967040
9.5411835 -5.0202479 -0.0062324912 4294967040
9.6886721 -5.0073609 -0.023996668 4294967040
9.8421154 -5.0144095 -0.023231164 4294967040
10.12983 -5.0077152 -0.13079348 4294967040
10.330663 -5.0152583 -0.044680778 4294967040
10.496162 -5.0156536 -0.044996839 4294967040
10.703515 -5.0115442 -0.072453067 4294967040
10.91424 -5.0112448 -0.070179775 4294967040
11.060051 -5.0163183 -0.031522959 4294967040
8.1379614 -4.9328284 -0.13035743 4294967040
8.3080721 -4.8271732 -0.12638395 4294967040
8.456501 -4.9385147 -0.17956075 4294967040
8.7357416 -4.9070888 -0.0056662271 4294967040
9.2238312 -4.9750018 -0.020922562 4294967040
9.5203352 -4.9530044 -0.049996007 4294967040
9.6887379 -4.9176598 -0.11963564 4294967040
9.8675079 -4.9107661 -0.13080449 4294967040
10.15039 -4.9671516 -0.14560091 4294967040
10.207228 -4.9972878 -0.14876318 4294967040
10.538725 -4.9953499 -0.10561825 4294967040
10.709878 -4.9925246 -0.11668564 4294967040
10.82109 -4.999239 -0.053404599 4294967040
11.082218 -4.938899 -0.045017973 4294967040
11.276948 -4.9065127 -0.0053183278 4294967040
11.53529 -4.8376827 -0.0068039065 4294967040
11.62375 -4.8296442 -0.0018509976 4294967040
8.1265602 -4.7175517 -0.12601721 4294967040
8.2590847 -4.6779742 -0.17071146 4294967040
8.4541416 -4.6884322 -0.10198887 4294967040
8.6923294 -4.6533818 -0.024141133 4294967040
8.8702221 -4.6246033 -0.042224444 4294967040
9.0566444 -4.6554089 -0.053240903 4294967040
9.2134686 -4.6705456 -0.037304867 4294967040
9.5533543 -4.6999655 -0.093600348 4294967040
9.7039862 -4.6370902 -0.14018439 4294967040
9.8410015 -4.72264 -0.10774984 4294967040
10.020556 -4.7757998 -0.12085167 4294967040
10.550015 -4.7281785 -0.083554827 4294967040
10.730134 -4.746963 -0.076556288 4294967040
11.11198 -4.6565228 -0.10423538 4294967040
11.291609 -4.7068496 -0.012985513 4294967040
11.581465 -4.7181673 -0.19705239 4294967040
11.608463 -4.701292 -0.19805802 4294967040
9.9229679 -4.5066934 -0.11633049 4294967040
11.123049 -4.5462999 -0.099805795 4294967040
11.252722 -4.514061 -0.016544232 4294967040
11.593519 -4.4577484 -0.18564314 4294967040
11.606413 -4.4612341 -0.1860981 4294967040
8.0650787 -4.3387127 -0.076816209 4294967040
9.2243013 -4.3902869 -0.064907968 4294967040
11.153936 -4.3323884 -0.076645076 4294967040
11.218987 -4.2358217 -0.067586929 4294967040
11.593582 -4.3221536 -0.17818955 4294967040
11.612692 -4.2986155 -0.17950776 4294967040
8.0624733 -4.0782242 -0.098485991 4294967040
9.1788597 -4.0616603 -0.069853403 4294967040
9.2382746 -4.0750451 -0.063677706 4294967040
9.7563057 -4.0323577 -0.011359297 4294967040
9.8258524 -4.110353 -0.0028022863 4294967040
11.161834 -4.1176572 -0.0724352 4294967040
11.226203 -4.1003499 -0.16786194 4294967040
11.590937 -4.1444268 -0.1672644 4294967040
11.621698 -4.0733032 -0.16800115 4294967040
8.0649691 -3.8737528 -0.14706649 4294967040
9.6963243 -3.8636236 -0.022545666 4294967040
9.8362265 -3.9428265 -0.0033920377 4294967040
11.170784 -3.9032826 -0.070617899 4294967040
11.248716 -3.890244 -0.16030037 4294967040
11.523283 -3.8502331 -0.078065105 4294967040
11.606245 -3.9477568 -0.16065162 4294967040
8.0600491 -3.7087102 -0.077739596 4294967040
9.176775 -3.640157 -0.11462079 4294967040
9.2155323 -3.6329103 -0.10758419 4294967040
9.5923252 -3.6617928 -0.10116956 4294967040
9.697113 -3.7491262 -0.025006641 4294967040
9.8554115 -3.7509873 -0.0038167203 4294967040
11.181499 -3.7188666 -0.034350589 4294967040
11.264902 -3.7292285 -0.15094456 4294967040
11.574818 -3.7488704 -0.15275925 4294967040
11.610605 -3.7122364 -0.16424178 4294967040
12.437464 -3.6189828 -0.19811431 4294967040
8.0514469 -3.4727402 -0.14409855 4294967040
8.8761215 -3.5202308 -0.044138554 4294967040
9.1339922 -3.5166435 -0.085609443 4294967040
9.2240906 -3.5190964 -0.11182621 4294967040
9.528265 -3.463896 -0.098107725 4294967040
9.7054577 -3.4488342 -0.023927718 4294967040
11.19769 -3.5657887 -0.029831856 4294967040
11.248519 -3.4889221 -0.088494055 4294967040
11.612108 -3.5633824 -0.18850017 4294967040
11.977036 -3.4595599 -0.036674868 4294967040
12.017271 -3.4149055 -0.022601273 4294967040
12.380333 -3.5218093 -0.14815271 4294967040
12.406386 -3.5040727 -0.19008011 4294967040
8.0473747 -3.2521243 -0.13941202 4294967040
8.9110155 -3.3171062 -0.040509645 4294967040
9.1558094 -3.2820177 -0.099420875 4294967040
9.5313807 -3.2609119 -0.083149053 4294967040
9.6473112 -3.3931351 -0.085293062 4294967040
11.197407 -3.3819814 -0.024853356 4294967040
11.241333 -3.3471022 -0.044530872 4294967040
11.979603 -3.3515215 -0.019079514 4294967040
12.004208 -3.3394666 -0.036006294 4294967040
12.370061 -3.3894706 -0.13372684 4294967040
4.9390454 -3.069375 -0.1671095 4294941184
8.049818 -3.1693807 -0.073606655 4294967040
8.7816658 -3.0382054 -0.11410698 4294967040
8.9052963 -3.0469196 -0.10829053 4294967040
9.0500402 -3.0731013 -0.10685951 4294967040
9.4805441 -3.1946199 -0.085746191 4294967040
11.189338 -3.1897945 -0.062336855 4294967040
11.3051 -3.157378 -0.095242284 4294967040
11.500473 -3.1617978 -0.053452011 4294967040
11.607011 -3.19399 -0.022086896 4294967040
11.972045 -3.0933528 -0.017978337 4294967040
12.09386 -3.0591986 -0.14703082 4294967040
12.308681 -3.051703 -0.013583094 4294967040
8.3998232 -2.8571782 -0.0032962523 4294967040
8.4962635 -2.8484526 -0.0075124642 4294967040
8.6348572 -2.8180273 -0.032395061 4294967040
8.823185 -2.9736304 -0.11571564 4294967040
9.2846918 -2.8148975 -0.063189983 4294967040
12.136724 -2.9957097 -0.12865375 4294967040
12.371105 -2.9420171 -0.14381199 4294967040
12.403412 -2.8669393 -0.13776192 4294967040
8.3953238 -2.600394 -0.092662185 4294967040
8.4391851 -2.6423922 -0.113518 4294967040
8.6287231 -2.7928619 -0.013170575 4294967040
9.2606182 -2.7790694 -0.063003913 4294967040
12.192982 -2.6209824 -0.094593205 4294967040
12.238993 -2.6629834 -0.091808699 4294967040
4.8987417 -2.4450045 -0.1666126 4294967040
8.3092136 -2.449698 -0.16042268 4294967040
8.5082846 -2.4905109 -0.16204232 4294967040
8.7588663 -2.4671831 -0.16370101 4294967040
8.9267225 -2.4720414 -0.15717928 4294967040
9.1699944 -2.4746206 -0.15204251 4294967040
9.2038336 -2.4723666 -0.14838764 4294967040
12.190134 -2.4502826 -0.10653944 4294967040
12.206386 -2.5374055 -0.12286299 4294967040
2.5289476 -2.2772794 -0.19869828 4294967040
4.8547983 -2.2634673 -0.15080026 4294967040
8.9710884 -2.3999732 -0.13647661 4294967040
12.194977 -2.3552227 -0.0086069712 4294967040
12.391951 -2.2668324 -0.11101313 4294967040
12.400736 -2.2726994 -0.12078254 4294967040
-1.1246033 -2.0249434 -0.17277412 4294967040
-0.93453693 -2.1067767 -0.15247354 4294967040
-0.73898977 -2.1291947 -0.12927417 4294967040
-0.40555453 -2.1165104 -0.14503911 4294967040
2.3357658 -2.0444345 -0.18340641 4294967040
2.5647497 -2.1390634 -0.18140769 4294967040
2.6950126 -2.045814 -0.17663281 4294967040
4.3623409 -2.1017137 -0.12700778 4294967040
4.4922352 -2.0956187 -0.16729662 4294967040
4.6192803 -2.1021664 -0.14023721 4294967040
4.9293361 -2.0645111 -0.13907976 4294967040
5.0897989 -2.0308967 -0.14597495 4294967040
5.5757098 -2.0981097 -0.14132038 4294967040
5.7882724 -2.0264156 -0.12000471 4294967040
5.8001533 -2.097214 -0.13148177 4294967040
7.1660061 -2.1147342 -0.065926977 4294967040
7.3661003 -2.1152401 -0.11406723 4294967040
7.5245094 -2.1149898 -0.042054255 4294967040
7.7427225 -2.1315641 -0.067185983 4294967040
7.8214502 -2.1336958 -0.050698064 4294967040
12.393381 -2.0738142 -0.10474667 4294967040
12.401497 -2.0440745 -0.11475231 4294967040
-3.058876 -1.874561 -0.089098893 4294967040
-2.9892941 -1.8076205 -0.0049973414 4294967040
-1.1236143 -1.9739258 -0.18975365 4294967040
-0.69961774 -1.9936869 -0.05363448 4294967040
2.5179965 -1.9513894 -0.1308174 4294967040
4.5829587 -1.8822303 -0.013505565 4294967040
4.7263575 -1.9402425 -0.12361471 4294967040
4.9529805 -1.8287839 -0.16086043 4294967040
5.0517092 -1.8240521 -0.14445439 4294967040
5.7819543 -1.9835933 -0.16976011 4294967040
5.8696084 -1.9249191 -0.11680588 4294967040
6.0433311 -1.8092772 -0.11074027 4294967040
9.24014 -1.8596164 -0.040653091 4294967040
12.392912 -1.8838925 -0.093706198 4294967040
12.402457 -1.8258357 -0.10256539 4294967040
-3.0813546 -1.7827103 -0.0041884016 4294967040
-2.815403 -1.6780297 -0.00074309576 4294967040
-1.0798209 -1.7447742 -0.12305989 4294967040
4.1101546 -1.6706935 -0.015237704 4294967040
4.3426971 -1.7202556 -0.013428126 4294967040
4.5004759 -1.7595549 -0.083513036 4294967040
4.6893015 -1.7426649 -0.15434588 4294967040
4.872324 -1.6836442 -0.16192386 4294967040
5.1408625 -1.695127 -0.15066078 4294967040
5.243185 -1.635898 -0.16237447 4294967040
5.998795 -1.6228154 -0.070226364 4294967040
6.0142756 -1.6151376 -0.12056503 4294967040
6.7644234 -1.7469285 -0.02739287 4294967040
12.39847 -1.700659 -0.086123094 4294967040
12.401332 -1.6164913 -0.092894167 4294967040
3.7477584 -1.5061872 -0.013425813 4294967040
3.9643764 -1.4294174 -0.11136577 4294967040
4.0305567 -1.410728 -0.11127733 4294967040
4.7193432 -1.4771812 -0.039127056 4294967040
4.8586745 -1.541739 -0.14109071 4294967040
5.1293669 -1.415913 -0.11682546 4294967040
5.3003435 -1.4282839 -0.13970059 4294967040
5.4928436 -1.4709563 -0.12940772 4294967040
5.6976423 -1.4699123 -0.14334552 4294967040
5.9974227 -1.5691063 -0.042359918 4294967040
6.0100846 -1.5818825 -0.11541588 4294967040
11.502172 -1.5622445 -0.19081561 4294967040
12.392361 -1.4921533 -0.15330192 4294967040
12.40432 -1.5112753 -0.102517 4294967040
4.0790291 -1.3928055 -0.10376791 4294967040
4.2580452 -1.3818276 -0.011172721 4294967040
4.7162018 -1.3559083 -0.11044246 4294967040
4.8569145 -1.3703992 -0.010330949 4294967040
5.1462965 -1.3168223 -0.14424551 4294967040
5.3196597 -1.3520858 -0.15834942 4294967040
5.4795227 -1.3859012 -0.12409808 4294967040
5.6719422 -1.3676207 -0.12190028 4294967040
12.398338 -1.2431562 -0.051479317 4294967040
12.409595 -1.3157438 -0.14981093 4294967040
4.7142901 -1.1251369 -0.029761558 4294967040
4.9520745 -1.0694011 -0.13883671 4294967040
5.1149325 -1.0298254 -0.16591799 4294967040
5.2573166 -1.1752105 -0.10743119 4294967040
11.759929 -1.0221323 -0.08618322 4294967040
12.397997 -1.1438794 -0.087185234 4294967040
12.405093 -1.182833 -0.11025237 4294967040
4.7159591 -0.92001867 -0.022267425 4294967040
4.9856114 -0.93248862 -0.15178216 4294967040
5.1096754 -0.91129625 -0.12311617 4294967040
5.2779641 -0.9183352 -0.11302522 4294967040
6.7113209 -0.9510808 -0.0064469157 4294967040
11.746716 -0.89242768 -0.055642944 4294967040
12.332604 -0.97523618 -0.00055481016 4294967040
4.7156444 -0.7867198 -0.011808948 4294967040
4.967555 -0.65570724 -0.16956426 4294967040
5.1092758 -0.71012688 -0.14183693 4294967040
5.251174 -0.77280438 -0.13089773 4294967040
6.1520147 -0.6107223 -0.15608369 4294967040
6.2503495 -0.65562403 -0.15492526 4294967040
6.6793113 -0.62948722 -0.11244706 4294967040
7.3238049 -0.60448408 -0.036584999 4294967040
11.744288 -0.75587606 -0.065063298 4294967040
11.905405 -0.67646003 -0.0022905655 4294967040
12.065756 -0.66996831 -0.08319889 4294967040
12.392415 -0.61737978 -0.095306471 4294967040
12.402232 -0.64150071 -0.017196013 4294967040
6.6759319 -0.58032906 -0.11565004 4294967040
6.9914608 -0.56085414 -0.033844739 4294967040
7.1574397 -0.57468826 -0.023873439 4294967040
7.3503518 -0.55642414 -0.034741145 4294967040
12.398754 -0.46372041 -0.047610074 4294967040
12.403859 -0.44589183 -0.12092978 4294967040
12.397902 -0.2764703 -0.045320351 4294967040
12.402787 -0.36527061 -0.10257711 4294967040
12.395456 -0.073619753 -0.04043486 4294967040
12.407204 -0.074998602 -0.1783686 4294967040
-1.6226647 0.18255752 -0.12938488 4294961664
-1.5750866 0.11203557 -0.13322397 4294964480
12.396078 0.13698655 -0.03571818 4294967040
12.408799 0.14522231 -0.18555716 4294967040
-1.6083434 0.34322828 -0.12430562 4294967040
-1.5889411 0.29420021 -0.12685442 4294967040
11.798241 0.30274796 -0.036008723 4294967040
11.808668 0.30509067 -0.15131809 4294967040
12.084473 0.22358182 -0.0070219808 4294967040
12.393323 0.23382875 -0.039680555 4294967040
12.405716 0.23278584 -0.18284772 4294967040
-1.6059538 0.49301136 -0.12159609 4294967040
-1.5913744 0.45636737 -0.12446833 4294967040
10.795514 0.5453583 -0.094325401 4294967040
10.860682 0.59302467 -0.13327456 4294967040
11.796422 0.40955058 -0.011949733 4294967040
11.809009 0.41935575 -0.10496042 4294967040
12.380266 0.59267294 -0.059248872 4294967040
-1.6060121 0.70349222 -0.11221883 4294967040
-1.5959864 0.65464932 -0.12667045 4294967040
1.5484707 0.74450731 -0.079924159 4294967040
1.6582283 0.74990988 -0.12490247 4294967040
1.8485287 0.75393629 -0.11043306 4294967040
2.0569577 0.76177907 -0.087831452 4294967040
2.2377172 0.70215654 -0.061380401 4294967040
4.5848789 0.78344601 -0.038362987 4294967040
4.7418852 0.73667395 -0.094420932 4294967040
4.9234452 0.77057099 -0.08928474 4294967040
5.0130835 0.74283791 -0.090572253 4294967040
9.20965 0.79403186 -0.001531314 4294967040
10.963525 0.66729206 -0.092716657 4294967040
11.093985 0.66868973 -0.16670996 4294967040
11.257999 0.78147525 -0.14466181 4294967040
12.126096 0.78390837 -0.16883631 4294967040
12.361814 0.78781331 -0.11932983 4294967040
-1.6094687 0.8669166 -0.10671829 4294967040
1.8673837 0.88477707 -0.077657819 4294967040
2.09815 0.81621987 -0.1678192 4294967040
2.7596903 0.98937905 -0.11647876 4294967040
4.5403032 0.81663877 -0.027044158 4294967040
4.6102314 0.85736668 -0.11675933 4294967040
4.9477577 0.93899751 -0.084413558 4294967040
5.0312328 0.87307495 -0.040006399 4294967040
6.8220367 0.98337209 -0.0099550523 4294967040
8.1283779 0.96221656 -0.012622654 4294967040
8.2101059 0.99901509 -0.010547906 4294967040
9.196043 0.80715716 -0.0043683955 4294967040
9.2093716 0.80437613 -0.0071189553 4294967040
10.376894 0.82686806 -0.17682119 4294967040
11.180765 0.81372696 -0.083691686 4294967040
11.348983 0.93397141 -0.036747217 4294967040
11.468121 0.98305887 -0.019584835 4294967040
12.117235 0.84780192 -0.095405824 4294967040
12.347038 0.95606244 -0.002594749 4294967040
-1.6158538 1.0565088 -0.099528581 4294967040
1.8454944 1.0441234 -0.06500417 4294967040
2.1424849 1.1844163 -0.12075722 4294967040
2.209435 1.1680415 -0.069335282 4294967040
2.5861974 1.1057662 -0.060473613 4294967040
2.6282618 1.0995119 -0.11653242 4294967040
4.5939322 1.0842882 -0.068529733 4294967040
4.603302 1.0403746 -0.089496307 4294967040
4.95193 1.1377528 -0.075374082 4294967040
6.5396824 1.0217491 -0.0018500882 4294967040
6.7681479 1.1392539 -0.082824245 4294967040
6.8123808 1.1778779 -0.042116664 4294967040
7.3852129 1.1207321 -0.026845748 4294967040
7.4979076 1.1464704 -0.02691292 4294967040
7.6490507 1.1653305 -0.032906797 4294967040
8.1089306 1.1380132 -0.080329046 4294967040
8.3304024 1.0653882 -0.006508403 4294967040
8.5111523 1.1465194 -0.00028846122 4294967040
11.17663 1.1871214 -0.013119363 4294967040
11.295359 1.1462033 -0.002519839 4294967040
11.416733 1.0718708 -0.0062736473 4294967040
12.35931 1.0844691 -0.0010321075 4294967040
-1.6254983 1.2652185 -0.090623081 4294967040
1.8710718 1.2335398 -0.071432739 4294967040
2.1347389 1.2052245 -0.14409611 4294967040
2.5710058 1.293977 -0.069416426 4294967040
2.6160192 1.2177401 -0.11204242 4294967040
2.8290477 1.3870574 -0.16009837 4294967040
4.5959601 1.3167075 -0.070722699 4294967040
4.6026244 1.3799448 -0.1202438 4294967040
4.9546127 1.3240906 -0.070952073 4294967040
5.0600634 1.2438956 -0.13012151 4294967040
6.7651482 1.3245891 -0.063709006 4294967040
6.9062734 1.2625048 -0.060240589 4294967040
7.0613904 1.2767 -0.053959977 4294967040
7.207356 1.2795178 -0.05413935 4294967040
7.5364323 1.2133589 -0.020158459 4294967040
7.7161665 1.253444 -0.015028674 4294967040
7.9088192 1.3339708 -0.010249266 4294967040
8.1377439 1.2557616 -0.068152204 4294967040
8.331315 1.3074671 -0.045709547 4294967040
8.5763111 1.2768667 -0.1460664 4294967040
8.7767239 1.2492833 -0.12900376 4294967040
8.812047 1.2438991 -0.17755532 4294967040
9.267746 1.2897384 -0.11663548 4294967040
9.5788288 1.3864741 -0.16688368 4294967040
9.7609091 1.350493 -0.1667257 4294967040
9.9101944 1.3589741 -0.17146116 4294967040
10.057779 1.3600366 -0.17930074 4294967040
10.372232 1.3584023 -0.18790339 4294967040
10.419497 1.3599923 -0.16879152 4294967040
10.709414 1.3835659 -0.081725016 4294967040
10.958399 1.3281426 -0.015747026 4294967040
11.124318 1.2676545 -0.0016425466 4294967040
11.227848 1.2567198 -0.010945841 4294967040
11.581976 1.349498 -0.082206607 4294967040
11.605833 1.3891139 -0.0678012 4294967040
12.390952 1.3264291 -0.082038142 4294967040
12.400915 1.3540466 -0.15980667 4294967040
-1.6420712 1.4587578 -0.087528169 4294967040
2.4664695 1.5442114 -0.1890669 4294967040
2.6690011 1.480758 -0.14305751 4294967040
2.8358581 1.4087212 -0.16656834 4294967040
3.9738142 1.462172 -0.029120995 4294967040
4.1412897 1.4439764 -0.08344771 4294967040
4.3293037 1.447541 -0.0093557481 4294967040
4.586297 1.465519 -0.060418636 4294967040
4.6391258 1.4879022 -0.026675308 4294967040
4.9566936 1.5082145 -0.06532526 4294967040
6.2945156 1.5123414 -0.077944145 4294967040
6.5201902 1.5407085 -0.011009886 4294967040
6.6691451 1.4834666 -0.041871406 4294967040
6.8059716 1.4415574 -0.013369511 4294967040
9.566905 1.5844531 -0.11547607 4294967040
9.7362385 1.5823927 -0.093316451 4294967040
9.9173832 1.5887918 -0.08665061 4294967040
10.126858 1.5938747 -0.097194687 4294967040
10.388538 1.5839605 -0.088581525 4294967040
10.435191 1.5129502 -0.051714763 4294967040
10.744253 1.45647 -0.076570868 4294967040
10.849489 1.5540893 -0.013077544 4294967040
11.087554 1.426765 -0.02276453 4294967040
11.37957 1.429456 -0.067308456 4294967040
11.589631 1.4396753 -0.1783731 4294967040
11.702706 1.5081335 -0.12829152 4294967040
12.391793 1.4192957 -0.090245277 4294967040
12.401666 1.4521942 -0.15588324 4294967040
-1.6418382 1.6166711 -0.072862819 4294967040
1.9619118 1.6979382 -0.036399644 4294967040
2.0607121 1.7177159 -0.034776274 4294967040
2.3998733 1.6270484 -0.088380672 4294967040
2.4978018 1.6126399 -0.18877597 4294967040
2.7447593 1.6141701 -0.07985507 4294967040
2.8222277 1.6167558 -0.080039673 4294967040
4.7879066 1.609533 -0.0038882904 4294967040
4.958354 1.7052336 -0.055370301 4294967040
5.002296 1.632414 -0.1193364 4294967040
6.8483901 1.6458488 -0.0043414389 4294967040
7.9324555 1.6969582 -0.19849584 4294967040
9.9865494 1.6128604 -0.10822481 4294967040
10.059681 1.6062212 -0.092725262 4294967040
10.375072 1.6124771 -0.044024192 4294967040
10.793967 1.6195009 -0.0032014055 4294967040
10.849133 1.6429027 -0.0067912685 4294967040
11.082728 1.6616331 -0.021333659 4294967040
11.224236 1.6818075 -0.0035198324 4294967040
11.463918 1.6794719 -0.0054738871 4294967040
11.76001 1.6369982 -0.12713061 4294967040
11.809934 1.7543583 -0.12251523 4294967040
12.369755 1.6179395 -0.026880682 4294967040
1.9042045 1.9471534 -0.18294501 4294967040
2.0257554 1.897879 -0.040691633 4294967040
4.9591007 1.9047432 -0.043768808 4294967040
10.99869 1.8569022 -0.0084431535 4294967040
11.053043 1.8314584 -0.0063181585 4294967040
11.205726 1.827009 -0.0053660716 4294967040
11.787257 1.8170516 -0.116708 4294967040
11.843788 1.8337166 -0.09411788 4294967040
12.381346 1.8089819 -0.011052791 4294967040
-1.4561385 2.0646465 -0.19415629 4294967040
1.8967264 2.0452185 -0.1703998 4294967040
2.1301064 2.0924129 -0.067081481 4294967040
2.2946558 2.0901799 -0.15726314 4294967040
2.4774733 2.1945448 -0.11301011 4294967040
2.6582508 2.1947887 -0.12367466 4294967040
4.1651745 2.1194375 -0.033811718 4294967040
4.365602 2.1191735 -0.062595598 4294967040
4.4128542 2.1294279 -0.14749275 4294967040
4.6375065 2.0994296 -0.13909993 4294967040
4.9616122 2.0947363 -0.059086669 4294967040
6.7927933 2.1357517 -0.18267679 4294943744
11.054968 2.0158784 -0.0037470267 4294967040
11.362676 2.0625689 -0.15811834 4294967040
11.754838 2.1494701 -0.097112708 4294967040
11.819578 2.1236091 -0.09467946 4294967040
-2.1103647 2.294642 -0.020871788 4294967040
1.9678644 2.2097831 -0.16196299 4294967040
2.1532824 2.2158341 -0.15370685 4294967040
2.2485139 2.2223742 -0.14958638 4294967040
2.4440427 2.2113063 -0.13202053 4294967040
2.6431842 2.2073824 -0.11885899 4294967040
4.9410529 2.2838972 -0.037813697 4294967040
7.7251711 2.2386427 -0.13878156 4294967040
7.9740191 2.347445 -0.071959704 4294967040
8.1170311 2.3414731 -0.093408242 4294967040
8.3550034 2.3719716 -0.10573596 4294967040
8.5466232 2.3713691 -0.14021327 4294967040
8.6563568 2.3736103 -0.10257849 4294967040
9.2076378 2.3882463 -0.080377012 4294967040
11.075019 2.2076769 -0.11685847 4294967040
11.585839 2.2221446 -0.16665784 4294967040
11.61762 2.210072 -0.16182318 4294967040
4.9747376 2.5067658 -0.053173766 4294967040
9.2158651 2.4048235 -0.080759734 4294967040
4.9784698 2.6278546 -0.082263991 4294967040
9.25424 2.7404265 -0.13427781 4294967040
-2.2667298 2.9740515 -0.063979618 4294967040
-2.1597803 2.9940932 -0.14274542 4294967040
-1.2594173 2.9886711 -0.031058764 4294967040
4.9762621 2.8404698 -0.084337711 4294967040
5.0024252 2.9169586 -0.10707536 4294967040
6.130599 2.9995599 -0.054488774 4294963712
6.7574072 2.9972925 -0.12706015 4294961920
-2.2965446 3.0107327 -0.021444649 4294967040
-2.1296349 3.0091062 -0.12498613 4294967040
-1.7873286 3.1420851 -0.043740805 4294967040
-1.4600194 3.1727185 -0.027106129 4294967040
4.989646 3.053196 -0.028300229 4294967040
5.0000272 3.1827805 -0.18819474 4294967040
6.068984 3.1485527 -0.023676947 4294943744
6.6899419 3.0292282 -0.073226772 4294960384
11.377344 3.0591717 -0.0028644346 4294967040
-2.0311441 3.2429552 -0.083550304 4294967040
-1.8450202 3.3690815 -0.017211065 4294967040
-1.741956 3.3221974 -0.030030465 4294967040
-1.465959 3.2206726 -0.016866198 4294967040
4.9880524 3.2333131 -0.012097919 4294967040
5.0877318 3.3726511 -0.06547232 4294967040
5.9803591 3.3844631 -0.010529996 4294937856
6.0222549 3.2832613 -0.031772494 4294938624
-2.0328412 3.4207349 -0.052658431 4294967040
-1.8698952 3.4128056 -0.025610391 4294967040
-1.6546872 3.5529733 -0.027720729 4294967040
4.9837036 3.5420167 -0.049529932 4294967040
5.1443505 3.5036983 -0.080113858 4294967040
5.9660707 3.5897086 -0.022350073 4294955008
-1.8841834 3.6879435 -0.044496875 4294967040
-1.599067 3.6733255 -0.021311745 4294967040
4.9976478 3.6883152 -0.050373662 4294967040
5.0036297 3.6964254 -0.082726143 4294967040
5.8904428 3.7297506 -0.057954706 4294960640
-1.8108633 3.8112767 -0.10771937 4294967040
-1.7819157 3.8665667 -0.039036699 4294967040
4.9946947 3.8320889 -0.020600535 4294967040
5.0047035 3.844497 -0.047359735 4294967040
5.664155 3.8398294 -0.044689737 4294961664
5.8650217 3.8420234 -0.018075254 4294965760
11.935936 3.8901691 -0.024372183 4294967040
-1.6915054 4.0180302 -0.020137409 4294967040
-1.5935301 4.1856198 -0.11350613 4294967040
-1.2710861 4.126111 -0.011743652 4294967040
-0.71176273 4.1665816 -0.00067171111 4294961408
-1.5775034 4.2189522 -0.043929122 4294967040
-1.2427721 4.2737055 -0.013043432 4294967040
-1.1433365 4.3342934 -0.013787176 4294967040
-0.93533856 4.3072987 -0.0076796897 4294963456
-0.7085014 4.2051029 -0.00054091687 4294961408
-6.4014521 4.5973129 -0.15880623 4294967040
-6.3708258 4.5960441 -0.15960714 4294967040
-1.4670038 4.4151487 -0.013908093 4294967040
-1.2894725 4.4991779 -0.051723003 4294967040
-1.1443989 4.4880729 -0.0099654729 4294967040
-0.90262568 4.4636273 -0.003850094 4294967040
4.733191 4.5338459 -0.077195771 4294967040
4.8659334 4.5464649 -0.056623518 4294967040
5.0647707 4.5186419 -0.047468212 4294967040
-6.6452379 4.6391869 -0.0084506441 4294967040
-6.5616021 4.6619492 -0.01890788 4294967040
-6.2248659 4.7189755 -0.034514882 4294967040
-6.1577244 4.6985703 -0.033802982 4294967040
-1.3491436 4.6217418 -0.040796392 4294967040
-1.0702573 4.6118493 -0.0037069139 4294967040
-6.0659461 4.9708624 -0.062442534 4294967040
4.6952224 4.8400764 -0.16869164 4294967040
4.864603 4.8381295 -0.079823792 4294967040
5.3673453 4.9793377 -0.013552085 4294967040
5.5554123 4.9935131 -0.1724119 4294967040
-6.0644603 5.1152768 -0.064268291 4294967040
4.9726415 5.0852861 -0.13877088 4294967040
5.3544297 5.114614 -0.096881405 4294967040
-6.0731564 5.2978415 -0.035438877 4294967040
4.9739437 5.2614136 -0.07567402 4294967040
5.1165857 5.3273954 -0.037900355 4294967040
5.3391209 5.2644796 -0.16104688 4294967040
5.4294028 5.2790823 -0.14857881 4294967040
-6.0734177 5.4536209 -0.064062119 4294967040
-0.81150985 5.5155745 -0.12004251 4294967040
-0.73052883 5.5799012 -0.12682839 4294967040
4.6259522 5.4186988 -0.0065687993 4294967040
4.9673071 5.4862986 -0.006711809 4294967040
5.0336108 5.4132128 -0.0020850687 4294967040
6.3883028 5.5964842 -0.092544273 4294967040
6.4137955 5.5942898 -0.090608075 4294967040
-6.0635338 5.696867 -0.056132369 4294967040
-0.94462377 5.633038 -0.12662399 4294967040
-0.68012762 5.6253695 -0.042635079 4294967040
-0.55981469 5.7123861 -0.12368029 4294967040
4.958096 5.6472301 -0.0044552041 4294967040
6.3184228 5.6417556 -0.086728126 4294967040
6.431603 5.6143341 -0.079946652 4294967040
-6.0640488 5.8528233 -0.03262797 4294967040
6.8518 5.8507748 -0.088978201 4294967040
-6.0588446 6.0643559 -0.023609225 4294967040
7.0611391 6.1608019 -0.19905367 4294967040
-6.0780325 6.2665033 -0.020323843 4294967040
-5.9807911 6.3355618 -0.019275689 4294967040
-5.7108431 6.2893834 -0.096238576 4294967040
-5.5811167 6.2639375 -0.17915513 4294967040
-0.25274733 6.3171434 -0.13238338 4294967040
-0.17007527 6.3194437 -0.13757876 4294967040
5.6548433 6.3724418 -0.11154687 4294967040
5.8500986 6.3498402 -0.10570286 4294967040
8.0871449 6.3906679 -0.063001372 4294967040
8.2641153 6.3859062 -0.06284941 4294967040
8.4919481 6.3868952 -0.079463065 4294967040
8.6122265 6.3811851 -0.085959554 4294967040
5.2753911 6.541718 -0.14828174 4294967040
5.4583244 6.4102135 -0.18522647 4294967040
8.1860714 -5.0425673 0.15418816 4294967040
8.3810883 -5.0204573 0.10440579 4294967040
8.5499477 -5.0206022 0.12304534 4294967040
8.668334 -5.0191536 0.13066563 4294967040
8.8729687 -5.0143485 0.13541043 4294967040
9.0995626 -5.009048 0.073330678 4294967040
9.3224792 -5.0079451 0.070074156 4294967040
9.4947414 -5.0104685 0.1157562 4294967040
9.6857605 -5.0158968 0.15487671 4294967040
9.8762407 -5.0182362 0.14534037 4294967040
10.116873 -5.0331974 0.1889275 4294967040
10.311474 -5.0307598 0.17332931 4294967040
10.513047 -5.0318675 0.13433994 4294967040
10.695039 -5.0286884 0.12597278 4294967040
10.897934 -5.0288229 0.13633329 4294967040
11.013485 -5.014185 0.16379482 4294967040
11.590487 -5.0076466 0.091309652 4294967040
11.61562 -5.0100031 0.12251094 4294967040
10.092545 -4.9728417 0.0121813 4294967040
10.462944 -4.9970098 0.052586842 4294967040
10.730636 -4.9969816 0.16916151 4294967040
10.967064 -4.996954 0.1732747 4294967040
11.154293 -4.8794341 0.1040411 4294967040
11.323804 -4.8861904 0.039647222 4294967040
11.446095 -4.9059076 0.0048047528 4294967040
11.625368 -4.9513264 0.14651176 4294967040
8.0650101 -4.6094418 0.13531323 4294967040
9.6370678 -4.6932487 0.0032978966 4294967040
9.9014215 -4.7150273 0.0078780232 4294967040
10.163031 -4.6428485 0.018935325 4294967040
10.249643 -4.6609063 0.018183459 4294967040
10.478205 -4.727602 0.034308828 4294967040
10.896306 -4.768167 0.0048733852 4294967040
11.17695 -4.6939359 0.073495917 4294967040
11.315069 -4.7240744 0.049408153 4294967040
11.470472 -4.7057295 0.06211634 4294967040
11.659807 -4.6680532 0.083546467 4294967040
-1.6392069 -4.5766268 0.19525015 4294967040
8.0624332 -4.4704256 0.12756743 4294967040
10.093824 -4.5047722 0.0093024466 4294967040
11.194342 -4.4723883 0.13142705 4294967040
11.327797 -4.5180197 0.0049637803 4294967040
11.449615 -4.4942756 0.11621766 4294967040
11.661316 -4.4860101 0.12201235 4294967040
-1.4031718 -4.3418908 0.18291378 4294967040
-1.3853436 -4.3346343 0.18243304 4294967040
8.0596066 -4.2983212 0.12479036 4294967040
10.021832 -4.3909125 0.014045634 4294967040
11.178833 -4.3174868 0.046904914 4294967040
11.246055 -4.301281 0.0086885169 4294967040
11.460008 -4.3049755 0.1631147 4294967040
11.682656 -4.2764416 0.12034868 4294967040
11.866679 -4.288053 0.10391425 4294967040
-1.4771523 -4.1080036 0.18219948 4294967040
8.0575933 -4.0925403 0.080889396 4294967040
9.8814983 -4.0490799 0.00129565 4294967040
11.189146 -4.1824212 0.053323664 4294967040
11.240808 -4.1124039 0.14374539 4294967040
11.457771 -4.1041565 0.10291301 4294967040
11.702228 -4.170774 0.10321556 4294967040
11.801971 -4.1912942 0.10134187 4294967040
8.0466709 -3.9141233 0.17635192 4294967040
9.8782444 -3.9195156 0.0043741367 4294967040
11.191217 -3.8778753 0.013942786 4294967040
11.265413 -3.9476514 0.15159613 4294967040
11.527905 -3.8596964 0.14165036 4294967040
11.619486 -3.8558755 0.11656924 4294967040
8.0443478 -3.6380324 0.12903273 4294967040
9.8928404 -3.7773104 0.0040735872 4294967040
11.174505 -3.7555151 0.0029722487 4294967040
11.370598 -3.678071 0.15092431 4294967040
11.420782 -3.6557178 0.15473033 4294967040
11.628658 -3.7164176 0.11272645 4294967040
11.824648 -3.6934037 0.18628238 4294967040
12.181853 -3.6419787 0.088594839 4294967040
12.297177 -3.6394467 0.15558468 4294967040
8.0440912 -3.5831466 0.096635722 4294967040
11.188201 -3.5561593 0.011098095 4294967040
11.31922 -3.5312774 0.16298169 4294967040
11.469003 -3.5353703 0.12941366 4294967040
11.642303 -3.5744481 0.030695647 4294967040
11.991768 -3.4336214 0.0052724499 4294967040
12.134681 -3.4443469 0.094089016 4294967040
12.292376 -3.5641563 0.16086012 4294967040
11.199119 -3.2519298 0.0013472635 4294967040
11.235965 -3.3131194 0.01765551 4294967040
11.532919 -3.2132206 0.054538958 4294967040
11.972713 -3.2382388 0.0059229182 4294967040
12.109012 -3.3106406 0.1896888 4294967040
12.282799 -3.3856142 0.14358522 4294967040
8.3944759 -3.0512123 0.16192038 4294967040
8.4797964 -3.0543633 0.16911572 4294967040
8.6338806 -3.0093174 0.17369585 4294967040
11.141539 -3.136426 0.10952226 4294967040
11.345907 -3.154475 0.017405428 4294967040
11.483093 -3.1638446 0.0092475126 4294967040
11.605199 -3.1107843 0.015261783 4294967040
11.976601 -3.1006706 0.017204845 4294967040
12.127907 -3.0704627 0.053786259 4294967040
12.315204 -3.048202 0.032810006 4294967040
8.3629045 -2.8794219 0.051907655 4294967040
8.5463324 -2.9202158 0.12026965 4294967040
8.6079445 -2.8361812 0.034335405 4294967040
11.999468 -2.9886827 0.0037375775 4294967040
12.145906 -2.9947941 0.077489689 4294967040
12.365839 -2.9290237 0.06557031 4294967040
12.4053 -2.8893313 0.11745051 4294967040
4.6924324 -2.787046 0.13251579 4294946048
12.195715 -2.6647687 0.063839689 4294967040
12.263536 -2.6878984 0.055357479 4294967040
12.404713 -2.7769625 0.061868913 4294967040
4.8573761 -2.5017676 0.037312627 4294967040
11.973175 -2.533622 0.052159339 4294967040
12.195936 -2.4089475 0.094779044 4294967040
12.2211 -2.4983349 0.073660143 4294967040
12.401841 -2.4303706 0.079864666 4294967040
-0.87082398 -2.2456541 0.18774717 4294967040
-0.67398852 -2.2423029 0.19365045 4294967040
4.7650328 -2.2780259 0.016947631 4294967040
4.8586001 -2.3054936 0.039892245 4294967040
11.94257 -2.3786929 0.0530985 4294967040
12.196457 -2.3587103 0.039530315 4294967040
12.343808 -2.3398902 0.065532252 4294967040
12.402932 -2.2437506 0.12530829 4294967040
-3.1422832 -2.0656414 0.081391811 4294967040
-0.87557423 -2.1076732 0.062380515 4294967040
-0.76404309 -2.1275954 0.055292971 4294967040
-0.58154452 -2.1281691 0.01559677 4294967040
2.9394014 -2.1352315 0.19191664 4294967040
3.0661254 -2.0813117 0.096943289 4294967040
3.2485414 -2.1032543 0.0895852 4294967040
4.3864365 -2.1062119 0.026982883 4294967040
4.531549 -2.0859268 0.0051957443 4294967040
4.7709541 -2.0998151 0.064819321 4294967040
4.8745546 -2.0864878 0.066156812 4294967040
5.1037974 -2.002151 0.00022162673 4294967040
5.4520288 -2.1873786 0.0065579121 4294967040
5.7349973 -2.0204217 0.10125717 4294967040
7.343709 -2.1325529 0.1858508 4294967040
7.5573006 -2.1295838 0.15054104 4294967040
7.7060237 -2.1370659 0.053281136 4294967040
7.8600664 -2.1480107 0.1917659 4294967040
12.093076 -2.1086853 0.044716604 4294967040
12.386506 -2.0824742 0.099456258 4294967040
12.402249 -2.1452589 0.11148696 4294967040
-3.0265994 -1.8554516 0.062500648 4294967040
-2.9811988 -1.8472805 0.081929162 4294967040
-2.7977204 -1.8266028 0.075598314 4294967040
-0.83056903 -1.8684162 0.11776877 4294967040
-0.76058894 -1.9919319 0.0035200224 4294967040
2.5568855 -1.9235359 0.04954182 4294967040
2.7306249 -1.9805357 0.09782432 4294967040
2.9435914 -1.9088795 0.10034794 4294967040
4.1786652 -1.8854619 0.1190988 4294967040
4.2646933 -1.87357 0.11260921 4294967040
4.5202398 -1.9052358 0.071888834 4294967040
4.7557907 -1.8923591 0.030919446 4294967040
4.9235744 -1.851634 0.091574289 4294967040
5.0741544 -1.9204655 0.0087691359 4294967040
5.7589464 -1.9907646 0.10645977 4294967040
5.8096218 -1.961862 0.024540538 4294967040
9.2987194 -1.8600719 0.037120551 4294967040
10.376834 -1.8949142 0.10534632 4294963712
10.520722 -1.9645321 0.11927001 4294963200
12.047383 -1.9053965 0.037761845 4294967040
12.386509 -1.8887044 0.099466331 4294967040
12.402115 -1.9140654 0.11848795 4294967040
-3.0186949 -1.7715845 0.06162291 4294967040
-2.9506443 -1.7702215 0.079165839 4294967040
-1.0069474 -1.6968107 0.16534479 4294967040
-0.84190959 -1.7880408 0.10965693 4294967040
4.7624331 -1.7120831 0.11303063 4294967040
4.9270325 -1.6967103 0.036164716 4294967040
5.156651 -1.6948574 0.019193983 4294967040
5.3660192 -1.6471705 0.013484535 4294967040
5.4718742 -1.6056608 0.057856135 4294967040
5.9984341 -1.6286659 0.024803357 4294967040
6.0156355 -1.6263657 0.025577625 4294967040
12.045527 -1.7202135 0.038126085 4294967040
12.392494 -1.7077289 0.10707967 4294967040
12.401952 -1.7201197 0.12204345 4294967040
3.8986192 -1.4272752 0.0037254004 4294967040
4.4931293 -1.4135327 0.091718301 4294967040
4.7371669 -1.4740354 0.042393874 4294967040
4.9242821 -1.432959 0.080675595 4294967040
5.0439425 -1.4392066 0.10687383 4294967040
5.329958 -1.4698334 0.028060764 4294967040
5.4250841 -1.5277146 0.050386321 4294967040
5.7124434 -1.5267913 0.17702006 4294967040
5.9938707 -1.5595061 0.029596064 4294967040
6.0235553 -1.5666199 0.02580478 4294967040
12.0339 -1.5548134 0.031152917 4294967040
12.393765 -1.5292702 0.10219773 4294967040
12.403172 -1.5064228 0.12894015 4294967040
3.9771075 -1.3553085 0.053642169 4294967040
4.1520243 -1.3504615 0.039020333 4294967040
4.2523665 -1.3348989 0.053534515 4294967040
4.4229574 -1.3908246 0.086352751 4294967040
4.7406111 -1.3937279 0.0011681686 4294967040
4.9885387 -1.3083386 0.097985715 4294967040
5.1356792 -1.2135251 0.070644207 4294967040
11.973795 -1.2309983 0.054907799 4294967040
12.152991 -1.2993757 0.067118265 4294967040
12.393816 -1.2784886 0.088615857 4294967040
12.401948 -1.3115978 0.11031311 4294967040
4.9893212 -1.1358443 0.063767456 4294967040
5.1782441 -1.0974158 0.072183765 4294967040
11.587173 -1.1356833 0.078182764 4294967040
11.690298 -1.0278498 0.066163518 4294967040
11.853158 -1.0785034 0.076165155 4294967040
12.175258 -1.0457865 0.19854203 4294967040
12.378723 -1.1653368 0.058791123 4294967040
12.403984 -1.176631 0.056226641 4294967040
4.7922277 -0.92049015 0.004829566 4294967040
4.9946814 -0.86989081 0.095900416 4294967040
5.1199765 -0.87259626 0.082033984 4294967040
6.6901631 -0.94647932 0.00017369686 4294967040
11.465803 -0.82773048 0.018931217 4294967040
11.714438 -0.93877888 0.046713375 4294967040
12.185484 -0.99978155 0.0074168886 4294967040
12.327636 -0.99263191 0.017210742 4294967040
4.7604847 -0.74967581 0.0074444767 4294967040
4.994132 -0.77054483 0.10283528 4294967040
5.0332222 -0.78478539 0.085620999 4294967040
6.690052 -0.63481855 0.043059826 4294967040
7.1716242 -0.61141598 0.028781652 4294967040
7.3520851 -0.61116827 0.038736962 4294967040
11.533474 -0.78200042 0.018968726 4294967040
11.716694 -0.71916044 0.069375627 4294967040
11.935091 -0.68992138 0.061535455 4294967040
12.126869 -0.66019773 0.12280841 4294967040
12.348408 -0.61876649 0.13283801 4294967040
12.40207 -0.66147053 0.18696392 4294967040
6.6905656 -0.55729753 0.0089146579 4294967040
6.8879251 -0.57459629 0.051941331 4294967040
7.0253711 -0.58950526 0.061997276 4294967040
7.3744097 -0.59344012 0.027691133 4294967040
12.178293 -0.54692638 0.06953615 4294967040
12.390832 -0.52106839 0.11463313 4294967040
12.392529 -0.28138614 0.15393846 4294967040
12.400325 -0.24859004 0.0048716119 4294967040
12.388487 -0.084700607 0.17534745 4294967040
12.401114 -0.14246364 0.0070736436 4294967040
11.794687 0.19717357 0.064889699 4294967040
11.911407 0.17259209 0.072134025 4294967040
12.015562 0.18789375 0.051832099 4294967040
12.388434 0.12643975 0.17450058 4294967040
-1.6079642 0.3115353 0.11869095 4294966528
-1.5992206 0.34297344 0.086885549 4294952704
11.796473 0.23530965 0.070818014 4294967040
11.830555 0.2033751 0.038755659 4294967040
12.100449 0.23176596 0.054460023 4294967040
12.385081 0.26281148 0.18639934 4294967040
-1.622619 0.49482986 0.12977308 4294967040
11.791206 0.45159745 0.050845001 4294967040
11.800375 0.4308235 0.060930297 4294967040
12.157932 0.40040487 0.077599861 4294967040
12.375888 0.46887848 0.18781023 4294967040
-1.6260719 0.65231287 0.13654664 4294967040
4.5846643 0.70910287 0.040695708 4294967040
4.7449651 0.73925233 0.10269246 4294967040
4.9202499 0.77158976 0.14591795 4294967040
9.198307 0.79314625 0.028146438 4294967040
9.2411175 0.78794253 0.02353788 4294967040
10.383976 0.77347028 0.037318423 4294967040
12.373909 0.74417782 0.17368332 4294967040
-1.6388417 0.85679817 0.14551651 4294967040
4.5852442 0.84463489 0.0026185578 4294967040
4.7409725 0.88789511 0.053407814 4294967040
4.933054 0.89645046 0.12952471 4294967040
6.0729089 0.95508122 0.0021631087 4294963200
8.1571188 0.98952806 0.018864781 4294967040
8.203001 0.99136364 0.02398435 4294967040
9.1974688 0.80982578 0.036466762 4294967040
9.2186069 0.80127311 0.016879093 4294967040
10.371971 0.80436188 0.027654404 4294967040
10.411916 0.80995584 0.035737779 4294967040
12.071147 0.93388718 0.03736338 4294967040
12.3886 0.91723633 0.023917219 4294967040
-1.6458067 1.0537199 0.15571114 4294967040
2.1118481 1.0836928 0.10874552 4294967040
4.5899878 1.0292354 0.0011215454 4294967040
4.7424459 1.1755676 0.056170359 4294967040
4.9344001 1.1250973 0.14034025 4294967040
6.3972526 1.0452527 0.1233968 4294967040
6.5065365 1.0173748 0.0054073166 4294967040
6.749198 1.1303827 0.13635173 4294967040
6.9280262 1.0981321 0.040525291 4294967040
7.1046028 1.1397214 0.013076016 4294967040
7.361691 1.1709499 0.0075381855 4294967040
7.4676666 1.1386957 0.014265157 4294967040
7.6368341 1.1671681 0.013949828 4294967040
8.1569099 1.003365 0.037838735 4294967040
8.2708912 1.0753007 0.0066671437 4294967040
8.5642815 1.1663101 0.008117347 4294967040
8.6222267 1.1802279 0.011073804 4294967040
8.8171015 1.1955742 0.10974882 4294967040
10.352918 1.11124 0.052569963 4294962176
11.351844 1.1696271 0.0044861622 4294967040
11.419028 1.0917273 0.0034985626 4294967040
12.196265 1.1875782 0.088655494 4294967040
12.385782 1.0971439 0.028171172 4294967040
-1.6502812 1.2552567 0.161017 4294967040
1.8653065 1.2780702 0.1649541 4294967040
2.5837679 1.3798664 0.092881858 4294967040
2.6117527 1.3107574 0.10714492 4294967040
3.9515209 1.3973854 0.093948483 4294967040
4.0401821 1.3501726 0.13521326 4294967040
4.2766924 1.3913751 0.085100532 4294967040
4.5926123 1.3245869 0.0030457438 4294967040
4.7122335 1.2763839 0.057310067 4294967040
4.9391537 1.3444513 0.14872411 4294967040
6.7130618 1.3397604 0.010459017 4294967040
6.8070478 1.3599579 0.0060307547 4294967040
7.3841896 1.207013 0.024391536 4294967040
7.7613006 1.279011 0.040269684 4294967040
7.9793634 1.3758357 0.054664969 4294967040
8.1676397 1.347221 0.065339588 4294967040
8.3604946 1.308567 0.0040735006 4294967040
8.4782953 1.3657993 0.048862059 4294967040
8.6778917 1.2726589 0.025612155 4294967040
8.8217297 1.2182455 0.10732471 4294967040
9.0618486 1.2335408 0.12985757 4294967040
9.2677822 1.2920825 0.01156853 4294967040
10.317432 1.2419621 0.046060793 4294967040
10.710215 1.385078 0.040656425 4294967040
10.977031 1.3884822 0.0069257943 4294967040
11.171868 1.364589 0.010519745 4294967040
11.31561 1.2616811 0.012298544 4294967040
11.404915 1.2347686 0.014268506 4294967040
12.382097 1.232868 0.019974956 4294967040
12.472807 1.3012524 0.14584355 4294967040
-1.6703349 1.4596636 0.18358505 4294967040
2.5753112 1.4218583 0.066447049 4294967040
3.9842222 1.4429067 0.028166102 4294967040
4.1467676 1.4147663 0.047629155 4294967040
4.2797441 1.4119596 0.067475215 4294967040
4.5533471 1.5419931 0.0028000907 4294967040
4.6776056 1.4431539 0.057948783 4294967040
4.941597 1.5256088 0.15763667 4294967040
6.3123598 1.4842527 0.013257802 4294967040
6.5583706 1.5315095 0.019302297 4294967040
6.6648626 1.5541718 0.070121542 4294967040
8.1030054 1.4241905 0.11983559 4294967040
9.0409088 1.4357389 0.011955883 4294967040
9.5522709 1.5748044 0.0074814158 4294967040
9.718235 1.5705168 0.017282953 4294967040
9.9137831 1.571869 0.026577601 4294967040
10.121378 1.5805957 0.029718403 4294967040
10.393941 1.5908895 0.05642049 4294967040
10.463075 1.5778098 0.068067901 4294967040
10.7598 1.4639997 0.047244683 4294967040
10.886909 1.5891619 0.003471805 4294967040
11.133612 1.4334242 0.014837815 4294967040
12.078663 1.4929355 0.12168697 4294967040
12.379971 1.4762349 0.040194955 4294967040
12.43759 1.4078083 0.17179868 4294967040
-2.1580601 1.785511 0.16488937 4294967040
2.1443892 1.6380045 0.13385549 4294967040
4.7762213 1.7138191 0.067601055 4294967040
4.9428463 1.6981587 0.16975811 4294967040
6.6891346 1.6344242 0.092069685 4294967040
8.9056349 1.7738433 0.033472165 4294967040
9.2598352 1.752812 0.088297889 4294967040
10.134872 1.6117887 0.0056127459 4294967040
10.335253 1.6034448 0.052113578 4294967040
10.435665 1.7211571 0.14220726 4294967040
10.777473 1.6110681 0.0077465782 4294967040
10.918242 1.621592 0.0096400948 4294967040
11.238276 1.756299 0.0053742751 4294967040
12.033043 1.732003 0.18388353 4294967040
12.373173 1.7712502 0.1922293 4294967040
-2.1357083 1.986516 0.15602276 4294967040
2.0719349 1.8353781 0.14233401 4294967040
4.5737572 1.9191518 0.085591473 4294967040
4.6575747 1.9219854 0.088760346 4294967040
4.9452062 1.9174428 0.18809402 4294967040
6.6850729 1.8715892 0.10278939 4294967040
8.9797697 1.8086587 0.050950218 4294967040
9.1156025 1.8388367 0.11073294 4294967040
9.2765579 1.8327802 0.042225711 4294967040
9.5105038 1.8293977 0.10963491 4294967040
9.7085037 1.8293785 0.13064533 4294967040
9.9274654 1.8291912 0.12303476 4294967040
10.133832 1.8466297 0.16198301 4294967040
10.323876 1.8444667 0.17550215 4294967040
10.416737 1.8364611 0.16824582 4294967040
11.139661 1.8771737 0.0040708729 4294967040
11.255297 1.890465 0.0061396547 4294967040
11.882666 1.993579 0.097137414 4294967040
12.169081 1.9600054 0.18986595 4294967040
12.364208 1.9432991 0.1948552 4294967040
12.404162 1.9250207 0.16210154 4294967040
-2.2026992 2.0775018 0.13024825 4294967040
-2.1242142 2.1722326 0.16480908 4294967040
-1.8699602 2.0346951 0.060425032 4294967040
2.0780504 2.0679274 0.08467146 4294967040
2.5073223 2.0577111 0.13607711 4294967040
2.6154909 2.0505815 0.11422467 4294967040
4.3634501 2.1234274 0.064924732 4294967040
4.4838686 2.128094 0.13026656 4294967040
